x,y,z
-35.854190826416016,-7.14625358581543,-24.015501022338867
-35.753116607666016,-7.1380720138549805,-24.034587860107422
-35.65248107910156,-7.125917434692383,-24.05790138244629
-35.55146789550781,-7.096060276031494,-24.100820541381836
-35.450313568115234,-7.058008670806885,-24.15273094177246
-35.34967803955078,-7.045854091644287,-24.176044464111328
-46.15752029418945,-8.254343032836914,-21.90688705444336
-46.057701110839844,-8.255284309387207,-21.915632247924805
-45.601924896240234,-8.188239097595215,-21.905162811279297
-45.65879440307617,-8.283620834350586,-21.923540115356445
-45.71384811401367,-8.222991943359375,-21.909805297851562
-45.55887222290039,-8.283802032470703,-21.93323516845703
-45.65025329589844,-8.144451141357422,-21.891925811767578
-45.58853530883789,-8.072230339050293,-21.861248016357422
-45.51488494873047,-8.17995834350586,-21.89839744567871
-45.402652740478516,-8.207534790039062,-21.903541564941406
-45.359615325927734,-8.288443565368652,-21.947736740112305
-45.45282745361328,-8.176811218261719,-21.89349365234375
-45.45934295654297,-8.286849975585938,-21.939598083496094
-45.2589225769043,-8.283035278320312,-21.963520050048828
-45.158321380615234,-8.271136283874512,-21.986658096313477
-45.05796432495117,-8.260782241821289,-22.00799560546875
-44.95817565917969,-8.261951446533203,-22.016464233398438
-44.85762023925781,-8.264911651611328,-22.023107528686523
-44.758262634277344,-8.261826515197754,-22.036300659179688
-44.65770721435547,-8.264780044555664,-22.042945861816406
-44.558349609375,-8.26908016204834,-22.047908782958984
-44.457828521728516,-8.272295951843262,-22.05437469482422
-44.35857009887695,-8.277289390563965,-22.058507919311523
-44.25932693481445,-8.289789199829102,-22.05448341369629
-44.159244537353516,-8.2959623336792,-22.05759048461914
-44.05961990356445,-8.298316955566406,-22.06477928161621
-43.958377838134766,-8.288930892944336,-22.085046768188477
-43.85878372192383,-8.291473388671875,-22.092180252075195
-43.75868225097656,-8.283204078674316,-22.11104393005371
-43.65752029418945,-8.274395942687988,-22.13083267211914
-43.55771255493164,-8.275410652160645,-22.139448165893555
-43.45750045776367,-8.273483276367188,-22.151519775390625
-43.35809326171875,-8.284797668457031,-22.14876937866211
-43.25840759277344,-8.293867111206055,-22.148651123046875
-43.15869903564453,-8.302979469299316,-22.14830780029297
-43.0587043762207,-8.28811264038086,-22.174549102783203
-42.95771026611328,-8.265741348266602,-22.209205627441406
-42.80189514160156,-8.20693302154541,-22.160188674926758
-42.857025146484375,-8.26777172088623,-22.216949462890625
-42.82172775268555,-8.1267728805542,-22.085969924926758
-42.75741195678711,-8.270194053649902,-22.224018096923828
-42.683631896972656,-8.198521614074707,-22.183603286743164
-42.72233581542969,-8.130448341369629,-22.111604690551758
-42.45777130126953,-8.279047966003418,-22.243757247924805
-42.557594299316406,-8.270763397216797,-22.243030548095703
-42.58464050292969,-8.205145835876465,-22.203289031982422
-42.35795593261719,-8.28001594543457,-22.25259780883789
-42.25826644897461,-8.281879425048828,-22.26024627685547
-42.158851623535156,-8.30768871307373,-22.24152183532715
-42.05923843383789,-8.32486629486084,-22.232437133789062
-42.12660217285156,-8.186857223510742,-22.19686508178711
-40.7973747253418,-7.910754680633545,-22.658266067504883
-40.74613571166992,-7.924685478210449,-22.794017791748047
-40.84410858154297,-7.954086780548096,-22.757492065429688
-40.881961822509766,-7.952083587646484,-22.662620544433594
-40.90683364868164,-7.95144510269165,-22.548765182495117
-40.82894515991211,-7.886301517486572,-22.51947021484375
-40.64097595214844,-7.8940558433532715,-22.847841262817383
-40.540374755859375,-7.881955623626709,-22.871030807495117
-40.439178466796875,-7.865488529205322,-22.899133682250977
-40.338504791259766,-7.852864742279053,-22.922998428344727
-40.23801040649414,-7.841718673706055,-22.945188522338867
-40.137901306152344,-7.833176136016846,-22.96454620361328
-40.03704071044922,-7.826542854309082,-22.981830596923828
-39.93702697753906,-7.818691730499268,-23.000356674194336
-39.83700942993164,-7.811041355133057,-23.01852035522461
-39.73647689819336,-7.8067779541015625,-23.033245086669922
-39.63587188720703,-7.802022457122803,-23.04842185974121
-39.53623962402344,-7.789555072784424,-23.071889877319336
-39.434627532958984,-7.770085334777832,-23.10356330871582
-39.334266662597656,-7.752551555633545,-23.132762908935547
-39.23280715942383,-7.734205722808838,-23.162967681884766
-39.1331901550293,-7.722064971923828,-23.186132431030273
-39.03233337402344,-7.722617149353027,-23.1955509185791
-38.93302536010742,-7.720129013061523,-23.207950592041016
-38.83197784423828,-7.704772472381592,-23.23489761352539
-38.7310791015625,-7.683094501495361,-23.268728256225586
-38.630191802978516,-7.661744117736816,-23.302257537841797
-38.5296630859375,-7.650136947631836,-23.324996948242188
-38.42927169799805,-7.6395463943481445,-23.346609115600586
-38.327781677246094,-7.621203422546387,-23.376811981201172
-38.22819137573242,-7.616410255432129,-23.39196014404297
-38.127845764160156,-7.620911121368408,-23.396804809570312
-38.0281982421875,-7.615719795227051,-23.412378311157227
-37.927757263183594,-7.604738712310791,-23.43441390991211
-37.826290130615234,-7.5865583419799805,-23.46446990966797
-37.72527313232422,-7.571436882019043,-23.491138458251953
-37.62452697753906,-7.550870418548584,-23.523818969726562
-37.523780822753906,-7.530536651611328,-23.55622100830078
-37.4233512878418,-7.5122785568237305,-23.586149215698242
-37.322975158691406,-7.5020222663879395,-23.60745620727539
-37.22184753417969,-7.478694438934326,-23.643117904663086
-37.1208610534668,-7.456623554229736,-23.677377700805664
-37.02008056640625,-7.43582820892334,-23.710329055786133
-36.918968200683594,-7.419979095458984,-23.737728118896484
-36.81808853149414,-7.391312599182129,-23.77937126159668
-36.71676254272461,-7.373915195465088,-23.80857276916504
-36.61582946777344,-7.352241516113281,-23.842403411865234
-36.51519775390625,-7.325351238250732,-23.881967544555664
-36.41433334350586,-7.311341285705566,-23.90748405456543
-36.31413269042969,-7.31686544418335,-23.91119956970215
-36.214969635009766,-7.322579860687256,-23.914608001708984
-36.11335372924805,-7.303074359893799,-23.946186065673828
-36.011817932128906,-7.269641399383545,-23.993162155151367
-35.91096496582031,-7.233791351318359,-24.04266357421875
-35.80974578857422,-7.217182159423828,-24.071014404296875
-35.708858489990234,-7.202983379364014,-24.096586227416992
-35.608612060546875,-7.178893566131592,-24.132946014404297
-35.50636672973633,-7.147467136383057,-24.177820205688477
-35.405845642089844,-7.128755569458008,-24.208295822143555
-35.30560302734375,-7.111871242523193,-24.236888885498047
-35.26063537597656,-7.171611785888672,-24.304651260375977
-46.21464920043945,-8.336849212646484,-21.939311981201172
-46.314334869384766,-8.334952354431152,-21.931575775146484
-46.337249755859375,-8.268671989440918,-21.903846740722656
-46.37028121948242,-8.223779678344727,-21.88522720336914
-46.11415100097656,-8.340227127075195,-21.945629119873047
-46.01476287841797,-8.344290733337402,-21.950864791870117
-45.91525650024414,-8.35489273071289,-21.9488468170166
-45.87241744995117,-8.452003479003906,-21.975116729736328
-45.77279281616211,-8.469114303588867,-21.966156005859375
-45.77661895751953,-8.302949905395508,-21.924928665161133
-45.812835693359375,-8.20882797241211,-21.905059814453125
-45.61563491821289,-8.378396034240723,-21.95246696472168
-45.71617126464844,-8.382686614990234,-21.937837600708008
-45.51533889770508,-8.368731498718262,-21.972976684570312
-45.415103912353516,-8.366642951965332,-21.985200881958008
-45.315040588378906,-8.36580753326416,-21.996021270751953
-45.21511459350586,-8.358576774597168,-22.013851165771484
-45.11511993408203,-8.350860595703125,-22.032133102416992
-45.01498794555664,-8.349532127380371,-22.043407440185547
-44.91506576538086,-8.349712371826172,-22.053098678588867
-44.814247131347656,-8.343381881713867,-22.069982528686523
-44.71428680419922,-8.343306541442871,-22.07985496520996
-44.6140251159668,-8.348393440246582,-22.08421516418457
-44.51468276977539,-8.352787971496582,-22.089149475097656
-44.41426467895508,-8.35676383972168,-22.09466552734375
-44.31552505493164,-8.372919082641602,-22.086458206176758
-44.216766357421875,-8.39608383178711,-22.070539474487305
-44.117042541503906,-8.40509033203125,-22.070541381835938
-44.01615905761719,-8.39830207824707,-22.087974548339844
-43.915672302246094,-8.386991500854492,-22.11031723022461
-43.81593322753906,-8.381346702575684,-22.12643814086914
-43.71514892578125,-8.367900848388672,-22.15106201171875
-43.61470413208008,-8.371675491333008,-22.156949996948242
-43.51529312133789,-8.375577926635742,-22.162336349487305
-43.414710998535156,-8.370965957641602,-22.177268981933594
-43.315250396728516,-8.374497413635254,-22.18317985534668
-43.2148551940918,-8.378643035888672,-22.18854331970215
-43.11470413208008,-8.37717342376709,-22.20006561279297
-43.01432800292969,-8.359313011169434,-22.229568481445312
-42.91403579711914,-8.349422454833984,-22.25035285949707
-42.81354522705078,-8.352867126464844,-22.256542205810547
-42.657012939453125,-8.266927719116211,-22.237518310546875
-42.71366500854492,-8.346199035644531,-22.273794174194336
-42.61314392089844,-8.342042922973633,-22.28817367553711
-42.51323318481445,-8.342289924621582,-22.29774284362793
-42.41389846801758,-8.346752166748047,-22.302555084228516
-42.31328582763672,-8.349081993103027,-22.309900283813477
-42.21395492553711,-8.353570938110352,-22.31480598449707
-42.11531448364258,-8.385174751281738,-22.289621353149414
-42.015541076660156,-8.393823623657227,-22.289831161499023
-41.9149169921875,-8.388934135437012,-22.30525779724121
-41.991580963134766,-8.296268463134766,-22.219280242919922
-42.02794647216797,-8.20345401763916,-22.196748733520508
-40.9530029296875,-7.996695518493652,-22.722169876098633
-40.89918899536133,-8.000068664550781,-22.828563690185547
-40.99399185180664,-8.02804946899414,-22.81171989440918
-41.049034118652344,-8.04038143157959,-22.73473358154297
-41.051002502441406,-8.049015998840332,-22.6280574798584
-40.96015548706055,-7.9919939041137695,-22.61583709716797
-40.797420501708984,-7.979427337646484,-22.864116668701172
-40.696231842041016,-7.962967872619629,-22.89554214477539
-40.595603942871094,-7.950667381286621,-22.91910743713379
-40.495643615722656,-7.936029434204102,-22.94507598876953
-40.39509963989258,-7.924327373504639,-22.96784019470215
-40.2945442199707,-7.919902324676514,-22.982715606689453
-40.193885803222656,-7.914758205413818,-22.998321533203125
-40.09395980834961,-7.907527446746826,-23.01615333557129
-39.99412536621094,-7.901194095611572,-23.03278350830078
-39.89311599731445,-7.893484592437744,-23.05131721496582
-39.792991638183594,-7.8848395347595215,-23.07069969177246
-39.692283630371094,-7.879324913024902,-23.08683204650879
-39.591880798339844,-7.86863899230957,-23.108469009399414
-39.49184799194336,-7.8534770011901855,-23.13511085510254
-39.391021728515625,-7.8397345542907715,-23.16012954711914
-39.290462493896484,-7.827898979187012,-23.18314552307129
-39.188961029052734,-7.809482574462891,-23.213476181030273
-39.088504791259766,-7.798407077789307,-23.23554039001465
-38.98894500732422,-7.79384183883667,-23.250411987304688
-38.888607025146484,-7.783621788024902,-23.271501541137695
-38.78705596923828,-7.7648420333862305,-23.30235481262207
-38.68608093261719,-7.7426323890686035,-23.33685874938965
-38.58533477783203,-7.72944974899292,-23.361303329467773
-38.48554611206055,-7.723448753356934,-23.377635955810547
-38.38443374633789,-7.700242519378662,-23.413366317749023
-38.283935546875,-7.688864231109619,-23.43583106994629
-38.183738708496094,-7.687051296234131,-23.447555541992188
-38.08360290527344,-7.693068027496338,-23.450817108154297
-37.983848571777344,-7.687088489532471,-23.467241287231445
-37.88253402709961,-7.670019149780273,-23.496143341064453
-37.782203674316406,-7.652481555938721,-23.525341033935547
-37.6815071105957,-7.6325178146362305,-23.557220458984375
-37.580780029296875,-7.612112998962402,-23.589750289916992
-37.47983169555664,-7.597689628601074,-23.6155948638916
-37.378902435302734,-7.583187103271484,-23.641563415527344
-37.27797317504883,-7.5686845779418945,-23.66753387451172
-37.17792892456055,-7.54607629776001,-23.702219009399414
-37.076045989990234,-7.524632930755615,-23.736024856567383
-36.975887298583984,-7.50119686126709,-23.771778106689453
-36.87461853027344,-7.476852893829346,-23.808568954467773
-36.773155212402344,-7.458699703216553,-23.838720321655273
-36.67300033569336,-7.4424147605896,-23.86651611328125
-36.57154846191406,-7.416983604431152,-23.90455436706543
-36.471038818359375,-7.39812707901001,-23.93528175354004
-36.371437072753906,-7.4006500244140625,-23.942317962646484
-36.2711067199707,-7.405252456665039,-23.947132110595703
-36.17068099975586,-7.394406318664551,-23.968923568725586
-36.069053649902344,-7.367682933807373,-24.00858497619629
-35.967350006103516,-7.325653076171875,-24.064977645874023
-35.866607666015625,-7.297741413116455,-24.105667114257812
-35.76575469970703,-7.276627540588379,-24.1389217376709
-35.66484451293945,-7.254875183105469,-24.17287826538086
-35.5633544921875,-7.229149341583252,-24.211318969726562
-35.46232604980469,-7.206542491912842,-24.246252059936523
-35.36109161376953,-7.190071105957031,-24.27435302734375
-47.71105194091797,-8.235713005065918,-21.903736114501953
-47.61109924316406,-8.243048667907715,-21.90546989440918
-47.66725540161133,-8.325855255126953,-21.937747955322266
-47.76716613769531,-8.325607299804688,-21.92817497253418
-47.843849182128906,-8.260902404785156,-21.906463623046875
-47.78066635131836,-8.185404777526855,-21.882606506347656
-47.70592498779297,-8.128226280212402,-21.861629486083984
-47.619815826416016,-8.126267433166504,-21.85865592956543
-47.56759262084961,-8.335325241088867,-21.93719482421875
-47.5838508605957,-8.214761734008789,-21.889678955078125
-46.27135467529297,-8.423895835876465,-21.96693229675293
-46.396934509277344,-8.383637428283691,-21.948383331298828
-46.433372497558594,-8.298628807067871,-21.91042137145996
-46.1714973449707,-8.424541473388672,-21.976076126098633
-46.07108688354492,-8.428351402282715,-21.981740951538086
-45.971744537353516,-8.432745933532715,-21.986675262451172
-45.67292022705078,-8.469656944274902,-21.975324630737305
-45.57185363769531,-8.45413875579834,-22.002422332763672
-45.47169876098633,-8.44526481628418,-22.02208137512207
-45.37189483642578,-8.44629955291748,-22.03079605102539
-45.271400451660156,-8.44233226776123,-22.045124053955078
-45.17182540893555,-8.44505786895752,-22.051794052124023
-45.071372985839844,-8.434009552001953,-22.073951721191406
-44.97108459472656,-8.4389066696167,-22.078367233276367
-44.87134552001953,-8.433262825012207,-22.09449005126953
-44.77119827270508,-8.424449920654297,-22.114028930664062
-44.671146392822266,-8.423681259155273,-22.124725341796875
-44.57109451293945,-8.430322647094727,-22.127283096313477
-44.47100830078125,-8.436469078063965,-22.130294799804688
-44.37173080444336,-8.441328048706055,-22.13467788696289
-44.2718391418457,-8.46387767791748,-22.119712829589844
-44.17326736450195,-8.488389015197754,-22.10236358642578
-44.0740966796875,-8.501412391662598,-22.09766387939453
-43.97254180908203,-8.482373237609863,-22.128692626953125
-43.87255096435547,-8.4749174118042,-22.14679718017578
-43.7717170715332,-8.461108207702637,-22.17194175720215
-43.67150115966797,-8.451770782470703,-22.192153930664062
-43.57255935668945,-8.46644401550293,-22.18562126159668
-43.47173309326172,-8.46745777130127,-22.19449234008789
-43.37211990356445,-8.462495803833008,-22.209793090820312
-43.2720832824707,-8.461861610412598,-22.220243453979492
-43.172279357910156,-8.46290397644043,-22.228958129882812
-43.07148361206055,-8.456762313842773,-22.245786666870117
-42.97050094604492,-8.441869735717773,-22.27218246459961
-42.870479583740234,-8.441329002380371,-22.282602310180664
-42.7706184387207,-8.442180633544922,-22.29137420654297
-42.67009353637695,-8.430601119995117,-22.314210891723633
-42.5699577331543,-8.42186164855957,-22.333621978759766
-42.469722747802734,-8.419772148132324,-22.345844268798828
-42.369319915771484,-8.416471481323242,-22.359251022338867
-42.269779205322266,-8.419451713562012,-22.365737915039062
-42.16996765136719,-8.420419692993164,-22.374576568603516
-42.071083068847656,-8.442895889282227,-22.359485626220703
-41.97050857543945,-8.445721626281738,-22.366374969482422
-41.87135696411133,-8.451502799987793,-22.369657516479492
-41.85478210449219,-8.37779426574707,-22.29723358154297
-41.89157485961914,-8.295424461364746,-22.254030227661133
-40.950340270996094,-8.05379581451416,-22.90093231201172
-41.04582977294922,-8.086587905883789,-22.8897705078125
-41.09771728515625,-8.083195686340332,-22.829130172729492
-40.853126525878906,-8.036991119384766,-22.927608489990234
-40.752262115478516,-8.030357360839844,-22.94489288330078
-40.65190124511719,-8.02734661102295,-22.958215713500977
-40.5518798828125,-8.01205062866211,-22.98478889465332
-40.45084762573242,-7.997028350830078,-23.011428833007812
-40.35094451904297,-7.997343063354492,-23.020875930786133
-40.25102233886719,-7.997523784637451,-23.03057098388672
-40.150630950927734,-7.994317054748535,-23.043949127197266
-40.05002975463867,-7.989568710327148,-23.059123992919922
-39.95001220703125,-7.974300861358643,-23.085796356201172
-39.8494987487793,-7.962827205657959,-23.10828399658203
-39.74886703491211,-7.957871437072754,-23.123836517333984
-39.648380279541016,-7.946800231933594,-23.14590072631836
-39.547569274902344,-7.93315315246582,-23.170896530151367
-39.44769287109375,-7.918907642364502,-23.196434020996094
-39.347129821777344,-7.907277584075928,-23.219078063964844
-39.24612808227539,-7.8922438621521,-23.245723724365234
-39.144744873046875,-7.874456882476807,-23.275352478027344
-39.04425811767578,-7.863385200500488,-23.297414779663086
-38.944053649902344,-7.854140758514404,-23.317596435546875
-38.843292236328125,-7.840864181518555,-23.34206771850586
-38.74317169189453,-7.825075626373291,-23.36941146850586
-38.64213562011719,-7.80978536605835,-23.39623260498047
-38.54179763793945,-7.799592018127441,-23.417417526245117
-38.44099807739258,-7.786011219024658,-23.442285537719727
-38.34013366699219,-7.772206783294678,-23.467432022094727
-38.2403564453125,-7.766066551208496,-23.484010696411133
-38.14029312133789,-7.765223503112793,-23.494831085205078
-38.04059600830078,-7.767054080963135,-23.502695083618164
-37.93998718261719,-7.754887580871582,-23.526012420654297
-37.83863067626953,-7.737261772155762,-23.55548858642578
-37.737815856933594,-7.716442584991455,-23.588342666625977
-37.63703536987305,-7.6956400871276855,-23.621295928955078
-37.53596878051758,-7.680354595184326,-23.648120880126953
-37.435882568359375,-7.664601802825928,-23.675243377685547
-37.3343620300293,-7.645817756652832,-23.70609474182129
-37.234066009521484,-7.628748893737793,-23.734743118286133
-37.13352966308594,-7.6097307205200195,-23.7656192779541
-37.032249450683594,-7.585512638092041,-23.80247688293457
-36.930850982666016,-7.5602192878723145,-23.840269088745117
-36.82987594604492,-7.538242816925049,-23.874500274658203
-36.7296257019043,-7.5286688804626465,-23.89498519897461
-36.62897872924805,-7.509034633636475,-23.926559448242188
-36.52788162231445,-7.485936164855957,-23.96194839477539
-36.4276237487793,-7.483685493469238,-23.974319458007812
-36.32777786254883,-7.4844255447387695,-23.983436584472656
-36.22684860229492,-7.4773077964782715,-24.001174926757812
-36.126243591308594,-7.4579973220825195,-24.032447814941406
-36.02433776855469,-7.4218902587890625,-24.082380294799805
-35.92279815673828,-7.380812168121338,-24.137765884399414
-35.821598052978516,-7.3571858406066895,-24.173828125
-35.72119140625,-7.331945419311523,-24.21156120300293
-35.61953353881836,-7.304772853851318,-24.25145721435547
-35.51872634887695,-7.283981800079346,-24.284408569335938
-35.41816711425781,-7.264801502227783,-24.3154354095459
-35.316917419433594,-7.247964382171631,-24.34406280517578
-35.27216339111328,-7.309279441833496,-24.410118103027344
-35.20967483520508,-7.153815269470215,-24.311443328857422
-48.16555404663086,-8.286109924316406,-21.9326114654541
-48.06658935546875,-8.293238639831543,-21.93446922302246
-48.12324905395508,-8.379728317260742,-21.962661743164062
-48.22283935546875,-8.369966506958008,-21.963607788085938
-48.21526336669922,-8.15915298461914,-21.894027709960938
-48.1670036315918,-8.074808120727539,-21.863513946533203
-48.08000946044922,-8.473943710327148,-21.992162704467773
-48.03703308105469,-8.57006549835205,-22.019655227661133
-48.0665283203125,-8.078575134277344,-21.857023239135742
-47.97858428955078,-8.142406463623047,-21.87321662902832
-47.96815490722656,-8.404236793518066,-21.969865798950195
-48.005126953125,-8.315668106079102,-21.93871307373047
-47.9426383972168,-8.24527359008789,-21.90453338623047
-47.7241096496582,-8.413991928100586,-21.964111328125
-47.82435607910156,-8.408771514892578,-21.959999084472656
-47.906681060791016,-8.33383560180664,-21.935436248779297
-47.624847412109375,-8.418946266174316,-21.968469619750977
-47.52442932128906,-8.430072784423828,-21.966022491455078
-47.449214935302734,-8.327027320861816,-21.906173706054688
-47.48463821411133,-8.234549522399902,-21.883270263671875
-46.227909088134766,-8.509225845336914,-22.00624656677246
-46.28438186645508,-8.594329833984375,-22.03609275817871
-46.36016082763672,-8.473437309265137,-21.97699546813965
-46.127803802490234,-8.508087158203125,-22.017467498779297
-46.027774810791016,-8.514863967895508,-22.019777297973633
-45.92823028564453,-8.524949073791504,-22.018529891967773
-45.82917785644531,-8.538835525512695,-22.012853622436523
-45.729515075683594,-8.548277854919434,-22.012205123901367
-45.62860107421875,-8.541254997253418,-22.029916763305664
-45.52827453613281,-8.5311279296875,-22.050975799560547
-45.427974700927734,-8.52857494354248,-22.06374740600586
-45.32864761352539,-8.525933265686035,-22.076297760009766
-45.22817611694336,-8.522127151489258,-22.090473175048828
-45.127967834472656,-8.520248413085938,-22.102325439453125
-45.02754211425781,-8.516773223876953,-22.11619758605957
-44.928218841552734,-8.52130126953125,-22.12088394165039
-44.828067779541016,-8.519831657409668,-22.13240623474121
-44.72705841064453,-8.51212215423584,-22.15093994140625
-44.62702560424805,-8.511514663696289,-22.16148567199707
-44.5274543762207,-8.514232635498047,-22.168155670166016
-44.428001403808594,-8.517839431762695,-22.173940658569336
-44.328330993652344,-8.527215957641602,-22.173419952392578
-44.22924041748047,-8.547977447509766,-22.1602783203125
-44.12947463989258,-8.57144832611084,-22.144210815429688
-44.03019714355469,-8.576299667358398,-22.148597717285156
-43.929542541503906,-8.556426048278809,-22.180448532104492
-43.82829284667969,-8.546972274780273,-22.20083999633789
-43.72771072387695,-8.534975051879883,-22.224002838134766
-43.62874221801758,-8.542096138000488,-22.225858688354492
-43.52837371826172,-8.553786277770996,-22.222837448120117
-43.42918014526367,-8.551880836486816,-22.234756469726562
-43.327789306640625,-8.541410446166992,-22.256271362304688
-43.22814178466797,-8.543603897094727,-22.263612747192383
-43.1278190612793,-8.540888786315918,-22.27653694152832
-43.02787399291992,-8.533729553222656,-22.29424476623535
-42.92723846435547,-8.528745651245117,-22.3096981048584
-42.827388763427734,-8.529458045959473,-22.318716049194336
-42.72718048095703,-8.520187377929688,-22.338804244995117
-42.626522064208984,-8.507658004760742,-22.362642288208008
-42.526607513427734,-8.500726699829102,-22.38007354736328
-42.42566680908203,-8.493541717529297,-22.397933959960938
-42.325531005859375,-8.49217414855957,-22.409427642822266
-42.22545623779297,-8.491243362426758,-22.42027473449707
-42.12593078613281,-8.486946105957031,-22.43465232849121
-42.02630615234375,-8.4966459274292,-22.43383026123047
-41.92588806152344,-8.500389099121094,-22.439619064331055
-41.77291488647461,-8.461921691894531,-22.396564483642578
-41.82978820800781,-8.505882263183594,-22.472400665283203
-41.01954650878906,-8.121150016784668,-22.957956314086914
-41.13562774658203,-8.164278984069824,-22.934038162231445
-40.91088104248047,-8.102129936218262,-22.979816436767578
-40.808349609375,-8.097911834716797,-22.994091033935547
-40.70806884765625,-8.095492362976074,-23.006616592407227
-40.60829544067383,-8.08961296081543,-23.02301597595215
-40.50783920288086,-8.078536987304688,-23.045080184936523
-40.40719985961914,-8.073526382446289,-23.06043815612793
-40.307743072509766,-8.077067375183105,-23.06635093688965
-40.20732498168945,-8.081043243408203,-23.071866989135742
-40.10688400268555,-8.077473640441895,-23.08576774597168
-40.006649017333984,-8.060628890991211,-23.114137649536133
-39.905967712402344,-8.040760040283203,-23.145992279052734
-39.80503463745117,-8.033601760864258,-23.163949966430664
-39.7051887512207,-8.026969909667969,-23.180980682373047
-39.60432815551758,-8.01295280456543,-23.206499099731445
-39.503257751464844,-7.997665882110596,-23.233320236206055
-39.40254592895508,-7.984746932983398,-23.257585525512695
-39.30189514160156,-7.9722580909729,-23.281204223632812
-39.201847076416016,-7.956993579864502,-23.307872772216797
-39.10072326660156,-7.941076755523682,-23.33539581298828
-39.000736236572266,-7.92604398727417,-23.361787796020508
-38.8994140625,-7.916058540344238,-23.382854461669922
-38.799560546875,-7.90220832824707,-23.407968521118164
-38.69870376586914,-7.888237476348877,-23.433263778686523
-38.597930908203125,-7.875086307525635,-23.45780372619629
-38.49700164794922,-7.860583782196045,-23.483774185180664
-38.39665222167969,-7.8502960205078125,-23.504985809326172
-38.296836853027344,-7.8512372970581055,-23.513731002807617
-38.19682312011719,-7.843379974365234,-23.532262802124023
-38.096744537353516,-7.84244966506958,-23.543109893798828
-37.996055603027344,-7.837068557739258,-23.558990478515625
-37.89518356323242,-7.8231964111328125,-23.584259033203125
-37.79512405395508,-7.8076324462890625,-23.611326217651367
-37.693416595458984,-7.780330657958984,-23.651470184326172
-37.593109130859375,-7.7629547119140625,-23.680519104003906
-37.492794036865234,-7.752896308898926,-23.701459884643555
-37.391605377197266,-7.729370594024658,-23.737489700317383
-37.29057693481445,-7.706763744354248,-23.77242088317871
-37.189422607421875,-7.690859794616699,-23.799945831298828
-37.08891296386719,-7.672001838684082,-23.830669403076172
-36.98760223388672,-7.647595405578613,-23.867582321166992
-36.88632583618164,-7.6231770515441895,-23.904495239257812
-36.786033630371094,-7.606136322021484,-23.933242797851562
-36.68582534790039,-7.596871852874756,-23.953325271606445
-36.5842170715332,-7.57743501663208,-23.984783172607422
-36.484317779541016,-7.563261032104492,-24.01019859313965
-36.38405990600586,-7.5610032081604,-24.022573471069336
-36.283409118652344,-7.555924892425537,-24.038053512573242
-36.18314743041992,-7.538879871368408,-24.06679916381836
-36.081626892089844,-7.512925148010254,-24.105512619018555
-35.9796142578125,-7.475796699523926,-24.156570434570312
-35.878334045410156,-7.444207191467285,-24.201345443725586
-35.77769088745117,-7.417257785797119,-24.24103546142578
-35.67593002319336,-7.389325141906738,-24.281879425048828
-35.57478332519531,-7.366096496582031,-24.317514419555664
-35.47382736206055,-7.344020366668701,-24.351770401000977
-35.37358093261719,-7.327302932739258,-24.380216598510742
-48.17921447753906,-8.461381912231445,-21.996315002441406
-48.278499603271484,-8.449212074279785,-22.000038146972656
-48.26348114013672,-8.242948532104492,-21.925527572631836
-47.78096008300781,-8.501829147338867,-21.990875244140625
-47.880836486816406,-8.493941307067871,-21.98971939086914
-47.869686126708984,-8.422242164611816,-21.966737747192383
-47.68124008178711,-8.503490447998047,-21.998891830444336
-47.581058502197266,-8.509183883666992,-22.00245475769043
-47.425846099853516,-8.454750061035156,-21.948524475097656
-47.48147201538086,-8.526329040527344,-21.993270874023438
-47.412715911865234,-8.419081687927246,-21.930387496948242
-47.38299560546875,-8.54438304901123,-21.983057022094727
-47.31431579589844,-8.437564849853516,-21.926393508911133
-46.18391799926758,-8.590591430664062,-22.050146102905273
-46.084381103515625,-8.593572616577148,-22.05663299560547
-45.98448944091797,-8.601372718811035,-22.057815551757812
-45.884700775146484,-8.60988712310791,-22.058273315429688
-45.78511047363281,-8.619648933410645,-22.05732536315918
-45.684906005859375,-8.617788314819336,-22.069271087646484
-45.58485794067383,-8.609915733337402,-22.087705612182617
-45.48448181152344,-8.606802940368652,-22.101057052612305
-45.384483337402344,-8.606424331665039,-22.111328125
-45.28468322753906,-8.600122451782227,-22.128055572509766
-45.18453598022461,-8.598660469055176,-22.139575958251953
-45.084075927734375,-8.58758544921875,-22.161643981933594
-44.98401641845703,-8.594152450561523,-22.164325714111328
-44.884376525878906,-8.603757858276367,-22.163532257080078
-44.783775329589844,-8.599002838134766,-22.178709030151367
-44.68434143066406,-8.59536075592041,-22.19248390197754
-44.58406448364258,-8.600358963012695,-22.196868896484375
-44.48395538330078,-8.599193572998047,-22.20799446105957
-44.383827209472656,-8.597864151000977,-22.21926498413086
-44.28456115722656,-8.61020278930664,-22.215389251708984
-44.18536376953125,-8.630409240722656,-22.20282554626465
-44.0860595703125,-8.649622917175293,-22.191484451293945
-43.98624801635742,-8.643218994140625,-22.208242416381836
-43.885066986083984,-8.627106666564941,-22.23613929748535
-43.78422164916992,-8.61323070526123,-22.26140785217285
-43.68423080444336,-8.612918853759766,-22.271554946899414
-43.58516311645508,-8.626670837402344,-22.266124725341797
-43.4852180480957,-8.634066581726074,-22.267736434936523
-43.384727478027344,-8.622762680053711,-22.290077209472656
-43.28422546386719,-8.618727684020996,-22.304523468017578
-43.184547424316406,-8.620692253112793,-22.3121395111084
-43.08421325683594,-8.617883682250977,-22.325092315673828
-42.984432220458984,-8.611736297607422,-22.341672897338867
-42.88452911376953,-8.612058639526367,-22.351118087768555
-42.78418731689453,-8.60918140411377,-22.36419105529785
-42.68346405029297,-8.596187591552734,-22.388580322265625
-42.58298873901367,-8.585184097290039,-22.410520553588867
-42.48213577270508,-8.578618049621582,-22.427682876586914
-42.38205337524414,-8.57764720916748,-22.43874740600586
-42.282203674316406,-8.57835865020752,-22.447765350341797
-42.181941986083984,-8.568696975708008,-22.46827507019043
-42.08186340332031,-8.560376167297363,-22.48736000061035
-41.990234375,-8.568608283996582,-22.53936004638672
-41.88690185546875,-8.551778793334961,-22.54778289794922
-40.963226318359375,-8.164697647094727,-23.032873153686523
-41.05878829956055,-8.176780700683594,-23.005008697509766
-40.86399459838867,-8.162473678588867,-23.046550750732422
-40.76443862915039,-8.16532039642334,-23.05328369140625
-40.664188385009766,-8.163137435913086,-23.065536499023438
-40.563629150390625,-8.158705711364746,-23.080413818359375
-40.463218688964844,-8.1553373336792,-23.093942642211914
-40.36393737792969,-8.152786254882812,-23.106464385986328
-40.2634162902832,-8.156001091003418,-23.112926483154297
-40.163726806640625,-8.157891273498535,-23.12066650390625
-40.06307601928711,-8.145642280578613,-23.144012451171875
-39.962039947509766,-8.122968673706055,-23.179067611694336
-39.86111068725586,-8.108466148376465,-23.20503807067871
-39.761634826660156,-8.10473346710205,-23.218839645385742
-39.66086959838867,-8.091416358947754,-23.2435302734375
-39.56039047241211,-8.080199241638184,-23.265844345092773
-39.45914840698242,-8.06342887878418,-23.294343948364258
-39.35892105102539,-8.04685115814209,-23.32253646850586
-39.258460998535156,-8.03576946258545,-23.344606399536133
-39.157230377197266,-8.019071578979492,-23.372976303100586
-39.05634689331055,-8.005125999450684,-23.398374557495117
-38.95622253417969,-7.989076614379883,-23.425891876220703
-38.85565185546875,-7.977166175842285,-23.44902992248535
-38.75505447387695,-7.965307712554932,-23.471948623657227
-38.654598236083984,-7.954232215881348,-23.4940128326416
-38.55315017700195,-7.935980319976807,-23.52419090270996
-38.45302963256836,-7.9201836585998535,-23.55153465270996
-38.35324478149414,-7.921360969543457,-23.56000328063965
-38.25249481201172,-7.922934055328369,-23.568294525146484
-38.1522331237793,-7.913265228271484,-23.588808059692383
-38.051902770996094,-7.910482883453369,-23.60185432434082
-37.9520149230957,-7.903554916381836,-23.61928367614746
-37.852115631103516,-7.896525859832764,-23.636747360229492
-37.75038146972656,-7.876405715942383,-23.669023513793945
-37.649803161621094,-7.849673271179199,-23.708438873291016
-37.549285888671875,-7.838400840759277,-23.730873107910156
-37.4484748840332,-7.824753761291504,-23.755868911743164
-37.34750747680664,-7.7954325675964355,-23.798114776611328
-37.24618911743164,-7.770726203918457,-23.835426330566406
-37.14522933959961,-7.75599479675293,-23.86166763305664
-37.04478073120117,-7.737834930419922,-23.89156723022461
-36.94340896606445,-7.71273136138916,-23.92930793762207
-36.842735290527344,-7.692929267883301,-23.961036682128906
-36.742183685302734,-7.681159973144531,-23.983924865722656
-36.64118957519531,-7.666193008422852,-24.01044464111328
-36.54075622558594,-7.648128509521484,-24.040321350097656
-36.439796447753906,-7.640781879425049,-24.058332443237305
-36.339962005615234,-7.634243488311768,-24.075334548950195
-36.239044189453125,-7.619808673858643,-24.101181030273438
-36.13777160644531,-7.595664978027344,-24.137914657592773
-36.036556243896484,-7.5645599365234375,-24.182235717773438
-35.93525695800781,-7.5326032638549805,-24.2275333404541
-35.83460235595703,-7.505551338195801,-24.267248153686523
-35.733036041259766,-7.4792656898498535,-24.306264877319336
-35.63160705566406,-7.453763484954834,-24.34442901611328
-35.53083801269531,-7.433276176452637,-24.376983642578125
-35.429840087890625,-7.410897254943848,-24.411640167236328
-35.329307556152344,-7.39211893081665,-24.44223976135254
-35.22850799560547,-7.371155261993408,-24.4753475189209
-35.2004280090332,-7.294408798217773,-24.423511505126953
-48.67702102661133,-8.4033203125,-22.011486053466797
-48.732967376708984,-8.477234840393066,-22.053579330444336
-48.76755142211914,-8.222099304199219,-21.960460662841797
-48.63412094116211,-8.49997329711914,-22.038307189941406
-48.66751480102539,-8.221630096435547,-21.960248947143555
-48.613887786865234,-8.313826560974121,-21.97848892211914
-48.4783821105957,-8.426968574523926,-22.00486183166504
-48.378944396972656,-8.438053131103516,-22.00238609313965
-48.435115814208984,-8.528367042541504,-22.026500701904297
-48.53529357910156,-8.5155029296875,-22.030799865722656
-48.567344665527344,-8.220199584960938,-21.96135902404785
-48.46603012084961,-8.225038528442383,-21.95345687866211
-48.33551025390625,-8.530856132507324,-22.033443450927734
-48.36454391479492,-8.23628044128418,-21.9360408782959
-48.2352180480957,-8.535721778869629,-22.03807830810547
-48.13645935058594,-8.551734924316406,-22.030118942260742
-47.83767318725586,-8.588716506958008,-22.01864242553711
-47.93777084350586,-8.5823974609375,-22.015783309936523
-47.73834228515625,-8.593178749084473,-22.023454666137695
-47.6378059387207,-8.596299171447754,-22.029945373535156
-47.53786087036133,-8.603702545166016,-22.03155517578125
-47.439056396484375,-8.619152069091797,-22.024173736572266
-47.33981704711914,-8.63165283203125,-22.0201473236084
-47.239437103271484,-8.64327621459961,-22.017248153686523
-47.27825164794922,-8.525341033935547,-21.95887565612793
-46.38444519042969,-8.595165252685547,-22.025270462036133
-46.34097671508789,-8.680355072021484,-22.064836502075195
-46.39774703979492,-8.76046085357666,-22.100038528442383
-46.497154235839844,-8.756551742553711,-22.094654083251953
-46.485992431640625,-8.620519638061523,-22.03271484375
-46.42295837402344,-8.546093940734863,-22.006460189819336
-46.240684509277344,-8.677849769592285,-22.077388763427734
-46.14069747924805,-8.67756462097168,-22.087631225585938
-46.041255950927734,-8.681239128112793,-22.09329605102539
-45.941184997558594,-8.687712669372559,-22.09600830078125
-45.84184265136719,-8.692108154296875,-22.100942611694336
-45.741111755371094,-8.693815231323242,-22.10898780822754
-45.64128875732422,-8.687344551086426,-22.12586784362793
-45.54042434692383,-8.68067741394043,-22.143369674682617
-45.44075012207031,-8.682682991027832,-22.150766372680664
-45.340667724609375,-8.6817045211792,-22.161832809448242
-45.24013900756836,-8.677481651306152,-22.17633819580078
-45.140384674072266,-8.671735763549805,-22.19249153137207
-45.039588928222656,-8.658190727233887,-22.217456817626953
-44.939979553222656,-8.67519474029541,-22.208524703979492
-44.84043502807617,-8.685492515563965,-22.2069034576416
-44.74055862426758,-8.678631782531738,-22.224210739135742
-44.64103698730469,-8.681940078735352,-22.230398178100586
-44.54114532470703,-8.68950080871582,-22.231857299804688
-44.440982818603516,-8.680792808532715,-22.25136375427246
-44.340057373046875,-8.680852890014648,-22.26123809814453
-44.241546630859375,-8.698678016662598,-22.251296997070312
-44.141727447509766,-8.714346885681152,-22.243793487548828
-44.04192352294922,-8.722793579101562,-22.24437141418457
-43.941070556640625,-8.708822250366211,-22.26966667175293
-43.84064483642578,-8.697976112365723,-22.291458129882812
-43.74070739746094,-8.690677642822266,-22.309412002563477
-43.64076232910156,-8.698081016540527,-22.31102180480957
-43.541133880615234,-8.707778930664062,-22.310197830200195
-43.44157028198242,-8.703187942504883,-22.32497787475586
-43.3404655456543,-8.694777488708496,-22.344337463378906
-43.24031066894531,-8.69328784942627,-22.355762481689453
-43.14112854003906,-8.698833465576172,-22.359323501586914
-43.041053771972656,-8.697930335998535,-22.370264053344727
-42.940677642822266,-8.694825172424316,-22.38361358642578
-42.840938568115234,-8.696317672729492,-22.391782760620117
-42.73992156982422,-8.688580513000488,-22.410215377807617
-42.63975524902344,-8.67246150970459,-22.437862396240234
-42.53910827636719,-8.667383193969727,-22.45334243774414
-42.43921661376953,-8.667792320251465,-22.46276092529297
-42.33967208862305,-8.670706748962402,-22.46937370300293
-42.23918533325195,-8.6668062210083,-22.483577728271484
-42.138858795166016,-8.64950942993164,-22.512500762939453
-42.0583610534668,-8.693244934082031,-22.59379768371582
-41.02070617675781,-8.235213279724121,-23.07847023010254
-41.12043762207031,-8.24117660522461,-23.040925979614258
-40.91946792602539,-8.225817680358887,-23.100507736206055
-40.820228576660156,-8.230965614318848,-23.104494094848633
-40.72072982788086,-8.241594314575195,-23.102569580078125
-40.62009811401367,-8.236638069152832,-23.118118286132812
-40.519710540771484,-8.233430862426758,-23.13149642944336
-40.419708251953125,-8.233052253723145,-23.141767501831055
-40.31963348388672,-8.232121467590332,-23.152612686157227
-40.219635009765625,-8.231743812561035,-23.162887573242188
-40.11971664428711,-8.224586486816406,-23.18058967590332
-40.018741607666016,-8.20261001586914,-23.214820861816406
-39.917972564697266,-8.18187427520752,-23.247652053833008
-39.81709671020508,-8.175153732299805,-23.26496124267578
-39.717201232910156,-8.16815185546875,-23.282516479492188
-39.61597442626953,-8.158859252929688,-23.302757263183594
-39.516357421875,-8.146724700927734,-23.325916290283203
-39.41454315185547,-8.125807762145996,-23.359052658081055
-39.31418991088867,-8.108308792114258,-23.38834571838379
-39.213165283203125,-8.09311294555664,-23.415142059326172
-39.1126594543457,-8.081707000732422,-23.43750762939453
-39.011871337890625,-8.068228721618652,-23.462350845336914
-38.91215896606445,-8.055394172668457,-23.486339569091797
-38.81166076660156,-8.044023513793945,-23.50880241394043
-38.710914611816406,-8.030840873718262,-23.533246994018555
-38.609718322753906,-8.014625549316406,-23.56117057800293
-38.50922393798828,-7.995910167694092,-23.591646194458008
-38.408817291259766,-7.9925689697265625,-23.605270385742188
-38.30916976928711,-7.994762420654297,-23.612611770629883
-38.20833206176758,-7.988297939300537,-23.629745483398438
-38.108367919921875,-7.981004238128662,-23.6476993560791
-38.007686614990234,-7.97568941116333,-23.663454055786133
-37.907997131347656,-7.970175743103027,-23.679330825805664
-37.80690002441406,-7.961832523345947,-23.698566436767578
-37.7059211730957,-7.939595699310303,-23.73297691345215
-37.60573196411133,-7.923315048217773,-23.760772705078125
-37.50560760498047,-7.914669513702393,-23.780155181884766
-37.40431594848633,-7.890357494354248,-23.817041397094727
-37.30257034301758,-7.855175971984863,-23.865875244140625
-37.20227813720703,-7.838134288787842,-23.894617080688477
-37.1015510559082,-7.825113296508789,-23.918912887573242
-37.000030517578125,-7.806301593780518,-23.949665069580078
-36.89903259277344,-7.784163475036621,-23.984046936035156
-36.79877853393555,-7.767185688018799,-24.012670516967773
-36.69826126098633,-7.75587797164917,-24.035009384155273
-36.5975341796875,-7.735480785369873,-24.067537307739258
-36.49711227416992,-7.724661350250244,-24.08942413330078
-36.3964958190918,-7.712632656097412,-24.112491607666016
-36.29608154296875,-7.701888084411621,-24.134252548217773
-36.194969177246094,-7.678654670715332,-24.16988754272461
-36.093624114990234,-7.646600723266602,-24.215213775634766
-35.9920654296875,-7.613006114959717,-24.262340545654297
-35.891143798828125,-7.591186046600342,-24.296417236328125
-35.7901611328125,-7.569115161895752,-24.330677032470703
-35.688785552978516,-7.544010639190674,-24.3684139251709
-35.587947845458984,-7.52302360534668,-24.40142250061035
-35.48681640625,-7.499656677246094,-24.437305450439453
-35.385841369628906,-7.477680206298828,-24.47153663635254
-35.2849006652832,-7.455699443817139,-24.505769729614258
-35.1605339050293,-7.347099304199219,-24.48858642578125
-35.209022521972656,-7.425673484802246,-24.527589797973633
-48.93217086791992,-8.442911148071289,-22.07184600830078
-48.83226776123047,-8.457988739013672,-22.06513786315918
-48.888633728027344,-8.534960746765137,-22.103849411010742
-48.98817825317383,-8.524662017822266,-22.105470657348633
-49.018760681152344,-8.283787727355957,-22.025951385498047
-48.970252990722656,-8.205284118652344,-21.9868221282959
-48.86979675292969,-8.208972930908203,-21.98045539855957
-48.789485931396484,-8.54814624786377,-22.0989990234375
-48.8170051574707,-8.292854309082031,-22.011003494262695
-48.690494537353516,-8.569840431213379,-22.084753036499023
-48.591190338134766,-8.596430778503418,-22.065181732177734
-48.49187469482422,-8.61555004119873,-22.053869247436523
-48.392189025878906,-8.617447853088379,-22.061609268188477
-48.29200744628906,-8.615982055664062,-22.073131561279297
-48.1922721862793,-8.624699592590332,-22.073213577270508
-48.092681884765625,-8.64203929901123,-22.063980102539062
-47.993770599365234,-8.656942367553711,-22.057174682617188
-47.894439697265625,-8.668582916259766,-22.054122924804688
-47.7944221496582,-8.675454139709473,-22.056407928466797
-47.69441223144531,-8.682391166687012,-22.058565139770508
-47.595306396484375,-8.688496589660645,-22.061548233032227
-47.49542999267578,-8.696392059326172,-22.062705993652344
-47.395755767822266,-8.70576000213623,-22.062183380126953
-47.29609298706055,-8.707818984985352,-22.069774627685547
-47.204185485839844,-8.68632984161377,-22.053129196166992
-47.14289093017578,-8.624752044677734,-22.000999450683594
-47.179664611816406,-8.54220199584961,-21.95826530456543
-46.298091888427734,-8.762579917907715,-22.107505798339844
-46.19784927368164,-8.760464668273926,-22.119630813598633
-46.097347259521484,-8.763821601867676,-22.12584686279297
-45.99809265136719,-8.768835067749023,-22.130081176757812
-45.89788818359375,-8.774127006530762,-22.134071350097656
-45.79790115356445,-8.773849487304688,-22.144311904907227
-45.69740676879883,-8.769883155822754,-22.158641815185547
-45.597652435302734,-8.764137268066406,-22.174793243408203
-45.497962951660156,-8.765999794006348,-22.182437896728516
-45.39738845825195,-8.76882553100586,-22.189327239990234
-45.29686737060547,-8.764668464660645,-22.203706741333008
-45.1968994140625,-8.757143020629883,-22.22193717956543
-45.09640121459961,-8.745763778686523,-22.244401931762695
-44.99713134765625,-8.750690460205078,-22.2486629486084
-44.8970947265625,-8.764812469482422,-22.24295997619629
-44.79758071899414,-8.767953872680664,-22.249298095703125
-44.69762420654297,-8.767906188964844,-22.259265899658203
-44.59750747680664,-8.774056434631348,-22.262277603149414
-44.49750900268555,-8.773677825927734,-22.27254867553711
-44.39690399169922,-8.768922805786133,-22.28772735595703
-44.29802322387695,-8.776650428771973,-22.28878402709961
-44.19753646850586,-8.787273406982422,-22.287111282348633
-44.0980110168457,-8.797731399536133,-22.285335540771484
-43.99876022338867,-8.795409202575684,-22.29758644104004
-43.89741516113281,-8.78525447845459,-22.318801879882812
-43.797691345214844,-8.779744148254395,-22.33467674255371
-43.69755172729492,-8.778348922729492,-22.346073150634766
-43.59739303588867,-8.783963203430176,-22.349760055541992
-43.497642517089844,-8.785396575927734,-22.35805320739746
-43.39690017700195,-8.779624938964844,-22.374357223510742
-43.29706954956055,-8.773320198059082,-22.391088485717773
-43.19746017456055,-8.775769233703613,-22.398252487182617
-43.09777069091797,-8.785050392150879,-22.397754669189453
-42.99748992919922,-8.782631874084473,-22.410282135009766
-42.89683532714844,-8.777485847473145,-22.425886154174805
-42.79737091064453,-8.773614883422852,-22.43993377685547
-42.69673156738281,-8.76121997833252,-22.46352767944336
-42.59611892700195,-8.75639820098877,-22.478830337524414
-42.496559143066406,-8.759218215942383,-22.485471725463867
-42.39601516723633,-8.762271881103516,-22.492082595825195
-42.29618835449219,-8.763145446777344,-22.50094985961914
-42.1953010559082,-8.748939514160156,-22.526525497436523
-42.13026428222656,-8.8446683883667,-22.640995025634766
-41.211246490478516,-8.263111114501953,-22.999128341674805
-41.17711639404297,-8.327723503112793,-23.08564567565918
-41.273983001708984,-8.349308013916016,-23.045564651489258
-41.31246566772461,-8.301817893981934,-22.93537712097168
-41.248600006103516,-8.2147855758667,-22.879343032836914
-41.07841491699219,-8.314582824707031,-23.111968994140625
-40.97612762451172,-8.304924011230469,-23.136934280395508
-40.87561798095703,-8.293451309204102,-23.159425735473633
-40.775535583496094,-8.299857139587402,-23.162261962890625
-40.6767578125,-8.315715789794922,-23.154449462890625
-40.57685089111328,-8.316030502319336,-23.163896560668945
-40.47670364379883,-8.314568519592285,-23.1754150390625
-40.376312255859375,-8.311362266540527,-23.18879508972168
-40.275577545166016,-8.305657386779785,-23.20497703552246
-40.175846099853516,-8.299840927124023,-23.221254348754883
-40.07444763183594,-8.28215217590332,-23.2508544921875
-39.97415542602539,-8.257506370544434,-23.287792205810547
-39.87345504760742,-8.24490737915039,-23.31175422668457
-39.77280044555664,-8.239761352539062,-23.32735824584961
