x,y,z,intensity,return_number,number_of_returns,scan_direction_flag,edge_of_flight_line,classification,synthetic,key_point,withheld,scan_angle_rank,user_data,point_source_id,gps_time
829566.4491670234,5932688.900521565,537.01,7,2,2,0,0,3,0,0,0,19,3,2100,363512138.4801393
829566.2153334114,5932689.516557601,536.99,6,2,2,0,0,3,0,0,0,19,3,2100,363512138.4801402
829568.3496120342,5932687.477508847,535.74,9,1,1,0,0,2,0,0,0,19,2,2100,363512138.4869077
829570.3964964782,5932687.359853044,535.9300000000001,4,1,1,0,0,2,0,0,0,19,2,2100,363512138.5004464
829570.1042037463,5932688.107903028,536.05,4,1,1,0,0,2,0,0,0,19,2,2100,363512138.5004472
829569.8557562298,5932688.767940383,536.0,5,1,1,0,0,2,0,0,0,19,2,2100,363512138.5004481
829567.6334739327,5932689.149642159,536.35,2,2,2,0,0,3,0,0,0,19,3,2100,363512138.4869096
829575.0307938498,5932684.308485942,537.15,6,2,2,0,0,3,0,0,0,19,3,2100,363512138.5207481
829570.9523079314,5932688.723774165,536.3,8,1,1,0,0,2,0,0,0,19,2,2100,363512138.5072165
829570.7038586357,5932689.383807867,536.14,7,2,2,0,0,2,0,0,0,19,2,2100,363512138.5072175
829571.5665652885,5932689.794373031,537.26,5,2,2,0,0,3,0,0,0,19,3,2100,363512138.5139863
829577.617604829,5932677.898698825,535.67,8,2,2,0,0,2,0,0,0,19,2,2100,363512138.5207407
829577.0622493419,5932679.3361186925,535.6800000000001,10,2,2,0,0,2,0,0,0,19,2,2100,363512138.5207425
829577.339927025,5932678.617408569,535.67,9,2,2,0,0,2,0,0,0,19,2,2100,363512138.5207416
829576.8138051208,5932680.010822559,535.64,8,2,2,0,0,2,0,0,0,19,2,2100,363512138.5207434
829576.5653564824,5932680.6561938785,535.62,4,3,3,0,0,2,0,0,0,19,2,2100,363512138.5207443
829578.2903258118,5932678.8372908365,536.75,10,1,1,0,0,3,0,0,0,19,3,2100,363512138.5275101
829577.7495904143,5932680.27470718,536.72,11,2,2,0,0,3,0,0,0,19,3,2100,363512138.5275119
829577.9980333757,5932679.585339002,536.83,10,1,1,0,0,3,0,0,0,19,3,2100,363512138.527511
829579.5185894244,5932679.629084683,536.59,4,2,2,0,0,3,0,0,0,19,3,2100,363512138.5342798
829575.788355115,5932667.221799697,538.76,9,1,2,0,0,3,0,0,0,19,3,2100,363512138.4868803
829575.2768528671,5932668.629868268,538.5,11,1,1,0,0,3,0,0,0,19,3,2100,363512138.4868821
829575.4375984237,5932668.072526247,538.95,11,1,1,0,0,3,0,0,0,19,3,2100,363512138.4868812
829575.1745638421,5932669.040529331,537.89,11,1,2,0,0,3,0,0,0,19,3,2100,363512138.4868831
829576.212708574,5932669.50969503,537.94,9,2,2,0,0,3,0,0,0,19,3,2100,363512138.4936531
829574.8238080131,5932669.891258058,538.14,10,2,3,0,0,3,0,0,0,19,3,2100,363512138.486884
829574.4146108439,5932671.079302773,537.63,11,1,2,0,0,3,0,0,0,19,3,2100,363512138.4868858
829574.51689741,5932670.653974672,538.23,9,1,2,0,0,3,0,0,0,19,3,2100,363512138.4868849
829575.3358328731,5932671.768501712,538.12,12,1,1,0,0,3,0,0,0,19,3,2100,363512138.4936559
829575.5842759485,5932671.079134608,538.24,7,2,2,0,0,3,0,0,0,19,3,2100,363512138.4936549
829575.7011805952,5932670.624475297,538.97,10,1,1,0,0,3,0,0,0,19,3,2100,363512138.493654
829575.3211934555,5932671.533876743,539.26,10,1,2,0,0,3,0,0,0,19,3,2100,363512138.4936549
829574.4438002539,5932670.551366491,539.6,2,1,3,0,0,3,0,0,0,19,3,2100,363512138.486884
829576.0372708514,5932669.289817517,540.7,9,1,2,0,0,3,0,0,0,19,3,2100,363512138.4936513
829575.335762457,5932671.005943472,541.25,9,1,2,0,0,3,0,0,0,19,3,2100,363512138.4936531
829575.9060774406,5932671.709839219,540.96,4,1,2,0,0,3,0,0,0,19,3,2100,363512138.5004236
829564.8386348768,5932674.64484486,538.03,9,1,2,0,0,3,0,0,0,19,3,2100,363512138.439506
829564.4002065683,5932675.891566006,537.67,11,1,1,0,0,3,0,0,0,19,3,2100,363512138.4395078
829565.3067058785,5932676.008748666,537.52,6,1,2,0,0,3,0,0,0,19,3,2100,363512138.446277
829564.6047998721,5932675.260876476,537.91,12,1,1,0,0,3,0,0,0,19,3,2100,363512138.4395069
829565.0144154388,5932676.786126034,537.5,8,1,2,0,0,3,0,0,0,19,3,2100,363512138.4462779
829564.7952061023,5932677.446151281,537.26,10,1,1,0,0,3,0,0,0,19,3,2100,363512138.4462788
829575.0581569023,5932672.487214599,538.23,10,1,2,0,0,3,0,0,0,19,3,2100,363512138.4936567
829574.7366288863,5932673.26460245,538.38,4,1,2,0,0,3,0,0,0,19,3,2100,363512138.4936577
829575.9938214553,5932672.091072906,538.47,10,2,2,0,0,3,0,0,0,19,3,2100,363512138.5004255
829575.774605806,5932672.692435996,538.36,12,2,2,0,0,3,0,0,0,19,3,2100,363512138.5004264
829575.5261616732,5932673.367139312,538.32,7,2,2,0,0,3,0,0,0,19,3,2100,363512138.5004272
829575.0877103898,5932674.364559683,538.89,10,1,2,0,0,3,0,0,0,19,3,2100,363512138.5004282
829575.9358178349,5932675.024423504,538.97,9,1,1,0,0,3,0,0,0,19,3,2100,363512138.5071976
829575.5115232733,5932673.147178219,539.38,4,1,2,0,0,3,0,0,0,19,3,2100,363512138.5004264
829575.2338434263,5932673.851221559,539.4,10,1,2,0,0,3,0,0,0,19,3,2100,363512138.5004272
829575.8334823918,5932674.92182643,540.53,11,1,1,0,0,3,0,0,0,19,3,2100,363512138.5071967
829575.5549757106,5932670.375252011,541.5,9,2,2,0,0,3,0,0,0,19,3,2100,363512138.4936522
829576.0079945375,5932668.849896554,542.85,8,1,2,0,0,3,0,0,0,19,3,2100,363512138.4936495
829575.2334275952,5932670.918009338,542.7,4,1,2,0,0,3,0,0,0,19,3,2100,363512138.4936522
829575.9937261976,5932671.0645513795,542.66,10,1,1,0,0,3,0,0,0,19,3,2100,363512138.5004218
829575.2045703498,5932673.440630563,541.46,8,1,2,0,0,3,0,0,0,19,3,2100,363512138.5004255
829576.0819053045,5932674.012490515,541.5600000000001,8,1,1,0,0,3,0,0,0,19,3,2100,363512138.5071948
829575.8773046022,5932674.584516101,541.39,11,1,1,0,0,3,0,0,0,19,3,2100,363512138.5071957
829575.6575870125,5932671.885946092,542.95,9,1,1,0,0,3,0,0,0,19,3,2100,363512138.5004227
829576.0818575876,5932673.499229455,543.65,3,1,3,0,0,3,0,0,0,19,3,2100,363512138.507193
829577.104178026,5932666.986919963,538.72,8,2,2,0,0,3,0,0,0,19,3,2100,363512138.4936495
829577.2649291779,5932666.473575131,539.09,9,2,2,0,0,3,0,0,0,19,3,2100,363512138.4936486
829576.8703499951,5932667.646948831,538.53,9,1,2,0,0,3,0,0,0,19,3,2100,363512138.4936504
829577.6452632454,5932667.7348293075,538.71,1,2,2,0,0,3,0,0,0,19,3,2100,363512138.5004199
829576.563444162,5932668.42433633,538.75,3,2,2,0,0,3,0,0,0,19,3,2100,363512138.4936513
829576.2714998261,5932671.372365092,538.51,8,1,2,0,0,3,0,0,0,19,3,2100,363512138.5004245
829577.4695289024,5932665.886886812,539.36,7,3,3,0,0,3,0,0,0,19,3,2100,363512138.4936477
829576.315320643,5932671.02039031,539.4300000000001,10,2,2,0,0,3,0,0,0,19,3,2100,363512138.5004236
829577.1195787026,5932671.738934418,539.72,5,3,3,0,0,3,0,0,0,19,3,2100,363512138.507193
829585.7749835325,5932671.678796753,537.72,6,3,4,0,0,3,0,0,0,19,3,2100,363512138.5545749
829586.0526583368,5932670.930759492,537.88,2,4,4,0,0,3,0,0,0,19,3,2100,363512138.5545739
829585.7749123737,5932670.91623886,540.86,2,3,3,0,0,3,0,0,0,19,3,2100,363512138.5545721
829577.5731389587,5932673.894798114,538.0600000000001,6,2,3,0,0,3,0,0,0,19,3,2100,363512138.5139656
829577.3393116078,5932674.554829215,537.92,7,2,3,0,0,3,0,0,0,19,3,2100,363512138.5139664
829577.0908629973,5932675.200199805,537.89,9,1,2,0,0,3,0,0,0,19,3,2100,363512138.5139673
829578.6995212898,5932677.63457996,537.3100000000001,10,1,1,0,0,3,0,0,0,19,3,2100,363512138.5275082
829577.7929253462,5932676.857420401,538.05,6,1,1,0,0,3,0,0,0,19,3,2100,363512138.520738
829577.7344400649,5932676.710806551,539.32,11,1,1,0,0,3,0,0,0,19,3,2100,363512138.5207371
829578.6848817716,5932677.39995484,538.45,11,1,1,0,0,3,0,0,0,19,3,2100,363512138.5275073
829578.7433200304,5932677.033309123,539.32,10,1,1,0,0,3,0,0,0,19,3,2100,363512138.5275063
829579.5909937107,5932675.126469947,538.12,4,2,2,0,0,3,0,0,0,19,3,2100,363512138.5275046
829580.7900205475,5932675.9329400575,538.12,9,2,2,0,0,3,0,0,0,19,3,2100,363512138.5342744
829580.5415755484,5932676.607641399,538.01,10,2,2,0,0,3,0,0,0,19,3,2100,363512138.5342753
829580.2346675694,5932677.385025417,538.1,12,1,1,0,0,3,0,0,0,19,3,2100,363512138.5342761
829581.3458969471,5932677.722181818,538.22,12,1,1,0,0,3,0,0,0,19,3,2100,363512138.5410455
829582.1058509407,5932675.698072185,538.46,3,2,2,0,0,3,0,0,0,19,3,2100,363512138.5410428
829580.2346429892,5932677.121062659,539.1800000000001,5,1,2,0,0,3,0,0,0,19,3,2100,363512138.5342753
829581.8574050133,5932676.358109626,538.4300000000001,11,1,1,0,0,3,0,0,0,19,3,2100,363512138.5410436
829581.521260824,5932677.164832338,538.54,12,1,1,0,0,3,0,0,0,19,3,2100,363512138.5410446
829576.856518059,5932672.442971949,539.64,9,1,2,0,0,3,0,0,0,19,3,2100,363512138.5071939
829577.8069216767,5932672.750836251,540.2,7,2,2,0,0,3,0,0,0,19,3,2100,363512138.5139629
829577.4123189839,5932673.674912408,540.65,6,1,2,0,0,3,0,0,0,19,3,2100,363512138.5139638
829576.9154506463,5932675.258948788,539.49,2,1,3,0,0,3,0,0,0,19,3,2100,363512138.5139664
829577.9244194677,5932676.124120241,539.6,11,1,1,0,0,3,0,0,0,19,3,2100,363512138.5207362
829578.0267082471,5932675.698796593,540.34,10,1,2,0,0,3,0,0,0,19,3,2100,363512138.5207353
829579.0648228228,5932676.006618941,540.08,8,1,2,0,0,3,0,0,0,19,3,2100,363512138.5275046
829578.8602252916,5932676.593312699,539.95,11,1,1,0,0,3,0,0,0,19,3,2100,363512138.5275055
829576.9446579968,5932674.9509764165,540.42,6,1,3,0,0,3,0,0,0,19,3,2100,363512138.5139656
829579.0355710087,5932675.815998812,541.3,11,1,1,0,0,3,0,0,0,19,3,2100,363512138.5275036
829581.9158211129,5932675.771491951,540.11,0,3,4,0,0,3,0,0,0,19,3,2100,363512138.5410419
829580.3223178895,5932676.739740838,539.91,9,1,2,0,0,3,0,0,0,19,3,2100,363512138.5342744
829579.3132433669,5932675.0679549845,541.27,10,2,3,0,0,3,0,0,0,19,3,2100,363512138.5275028
829582.5296865663,5932674.744650838,537.8100000000001,1,4,4,0,0,3,0,0,0,19,3,2100,363512138.5410419
829586.5938528489,5932672.35333138,537.82,4,2,3,0,0,3,0,0,0,19,3,2100,363512138.5613436
829583.2463146403,5932676.049871209,538.02,7,2,2,0,0,3,0,0,0,19,3,2100,363512138.5478121
829585.8489264942,5932676.900093302,537.45,3,2,2,0,0,1,0,0,0,19,1,2100,363512138.5681175
829585.5274040145,5932677.706815198,537.6,2,2,2,0,0,1,0,0,0,19,1,2100,363512138.5681185
829587.4418558368,5932672.162596289,539.86,2,3,3,0,0,3,0,0,0,19,3,2100,363512138.5681101
829586.5795930931,5932674.348072326,540.13,8,2,2,0,0,3,0,0,0,19,3,2100,363512138.5681128
829586.9303525862,5932673.5413374845,539.73,1,3,3,0,0,3,0,0,0,19,3,2100,363512138.5681119
829588.027067842,5932674.523831382,539.99,3,3,3,0,0,3,0,0,0,19,3,2100,363512138.5748806
829585.5269177045,5932674.362934905,540.86,4,2,3,0,0,3,0,0,0,19,3,2100,363512138.5613444
829585.7169028161,5932673.820246754,541.09,3,1,3,0,0,3,0,0,0,19,3,2100,363512138.5613436
829583.4654828723,5932674.935248928,540.29,6,2,3,0,0,3,0,0,0,19,3,2100,363512138.5478093
829582.9978190066,5932676.196644118,539.98,2,2,2,0,0,3,0,0,0,19,3,2100,363512138.5478111
829582.7786096709,5932676.842005175,539.8,7,1,2,0,0,3,0,0,0,19,3,2100,363512138.5478121
829584.2550117963,5932674.993791236,540.41,8,2,2,0,0,3,0,0,0,19,3,2100,363512138.5545776
829586.3165365481,5932675.081440894,539.97,5,3,3,0,0,3,0,0,0,19,3,2100,363512138.5681138
829587.778621564,5932675.1838672105,539.91,8,2,2,0,0,6,0,0,0,19,6,2100,363512138.5748815
829587.5009428049,5932675.8879114445,539.94,11,1,1,0,0,6,0,0,0,19,6,2100,363512138.5748824
829587.2086490464,5932676.621293383,540.03,12,1,1,0,0,6,0,0,0,19,6,2100,363512138.5748833
829586.93097456,5932677.3400083985,540.1800000000001,11,1,1,0,0,3,0,0,0,19,3,2100,363512138.5748842
829577.2356546378,5932666.033658038,541.35,9,2,3,0,0,3,0,0,0,19,3,2100,363512138.4936468
829576.8556654999,5932666.928392464,541.64,9,2,3,0,0,3,0,0,0,19,3,2100,363512138.4936477
829577.9228702378,5932666.268224832,541.71,9,1,1,0,0,3,0,0,0,19,3,2100,363512138.5004163
829578.6832805668,5932667.060114307,542.17,0,3,3,0,0,3,0,0,0,19,3,2100,363512138.5071857
829578.9024948436,5932666.444087619,542.36,10,2,2,0,0,3,0,0,0,19,3,2100,363512138.5071848
829576.4318077218,5932667.647179034,543.24,3,1,3,0,0,3,0,0,0,19,3,2100,363512138.4936477
829577.2505702683,5932667.676379244,543.22,4,2,2,0,0,3,0,0,0,19,3,2100,363512138.5004171
829576.2564385042,5932668.175193566,542.89,5,1,2,0,0,3,0,0,0,19,3,2100,363512138.4936486
829576.6806196236,5932669.363101442,542.32,10,1,2,0,0,3,0,0,0,19,3,2100,363512138.5004199
829576.5052554616,5932669.935111867,541.85,9,2,2,0,0,3,0,0,0,19,3,2100,363512138.5004208
829576.3883277294,5932670.125811311,542.28,8,1,2,0,0,3,0,0,0,19,3,2100,363512138.5004208
829577.5141115631,5932670.052302013,542.45,7,1,1,0,0,3,0,0,0,19,3,2100,363512138.5071893
829577.2364373847,5932670.800341636,542.37,8,2,2,0,0,3,0,0,0,19,3,2100,363512138.5071903
829576.6510214761,5932667.01648914,543.53,5,1,3,0,0,3,0,0,0,19,3,2100,363512138.4936468
829578.1132653261,5932668.028275622,544.32,8,2,3,0,0,3,0,0,0,19,3,2100,363512138.5071857
829578.8878336922,5932665.974829875,544.47,2,1,3,0,0,3,0,0,0,19,3,2100,363512138.5071829
829576.8413244424,5932668.351160308,544.72,11,1,2,0,0,3,0,0,0,19,3,2100,363512138.5004171
829581.446432727,5932665.915727946,543.85,1,2,3,0,0,3,0,0,0,19,3,2100,363512138.5207208
829576.4028993516,5932669.612545415,544.29,3,1,1,0,0,3,0,0,0,19,3,2100,363512138.500419
829576.9295041718,5932671.313761089,543.5,8,1,2,0,0,3,0,0,0,19,3,2100,363512138.5071903
829577.93837226,5932671.518946172,543.96,8,2,2,0,0,3,0,0,0,19,3,2100,363512138.5139591
829576.6221118293,5932668.981852671,544.5,10,1,1,0,0,3,0,0,0,19,3,2100,363512138.5004181
829577.3825263255,5932669.803074382,544.92,9,1,1,0,0,3,0,0,0,19,3,2100,363512138.5071876
829577.6748156337,5932669.040359431,544.8100000000001,10,1,1,0,0,3,0,0,0,19,3,2100,363512138.5071866
829577.1340785172,5932670.448445985,544.9300000000001,12,1,1,0,0,3,0,0,0,19,3,2100,363512138.5071884
829578.040653413,5932671.049621876,544.67,10,1,1,0,0,3,0,0,0,19,3,2100,363512138.5139582
829587.8798508754,5932668.143922938,541.36,9,3,3,0,0,6,0,0,0,19,6,2100,363512138.5613362
829587.6021703061,5932668.833300673,541.41,2,3,3,0,0,6,0,0,0,19,6,2100,363512138.5613371
829588.0994732887,5932670.0505540995,541.57,8,3,3,0,0,6,0,0,0,19,6,2100,363512138.5681064
829587.3098557487,5932669.332050706,542.52,4,2,3,0,0,3,0,0,0,19,3,2100,363512138.5613371
829584.6345560948,5932670.931202861,544.17,4,2,2,0,0,3,0,0,0,19,3,2100,363512138.547802
829585.1463869029,5932671.473823411,545.32,4,2,2,0,0,3,0,0,0,19,3,2100,363512138.5545703
829576.5934106219,5932672.633750559,541.71,3,2,3,0,0,3,0,0,0,19,3,2100,363512138.507193
829578.2897221125,5932674.510823455,542.29,10,1,1,0,0,3,0,0,0,19,3,2100,363512138.5207326
829579.5032242879,5932674.481272132,541.65,9,1,2,0,0,3,0,0,0,19,3,2100,363512138.5275018
829579.342432329,5932674.540018112,543.23,10,1,1,0,0,3,0,0,0,19,3,2100,363512138.5275009
829581.0968155902,5932673.923734366,543.19,3,3,3,0,0,3,0,0,0,19,3,2100,363512138.5342688
829576.8423250967,5932674.877708215,541.85,9,1,2,0,0,3,0,0,0,19,3,2100,363512138.5139647
829578.2020526917,5932674.9214800885,541.61,9,1,2,0,0,3,0,0,0,19,3,2100,363512138.5207335
829577.9389916742,5932675.610855342,541.65,7,1,2,0,0,3,0,0,0,19,3,2100,363512138.5207344
829580.2053467858,5932676.461174059,542.28,2,2,2,0,0,3,0,0,0,19,3,2100,363512138.5342726
829581.4334983687,5932676.57829617,541.9300000000001,4,2,4,0,0,3,0,0,0,19,3,2100,363512138.5410419
829580.3076332621,5932676.0211840775,543.03,10,1,1,0,0,3,0,0,0,19,3,2100,363512138.5342716
829580.7168454687,5932675.023773748,542.63,4,2,3,0,0,3,0,0,0,19,3,2100,363512138.5342707
829581.6380725584,5932675.712980779,543.37,7,2,3,0,0,3,0,0,0,19,3,2100,363512138.54104
829579.942258487,5932676.88658099,543.23,7,1,2,0,0,3,0,0,0,19,3,2100,363512138.5342726
829579.6645854242,5932677.619961751,543.36,10,1,1,0,0,3,0,0,0,19,3,2100,363512138.5342734
829581.0973382742,5932677.165059392,543.22,9,1,4,0,0,3,0,0,0,19,3,2100,363512138.5410419
829576.6079790517,5932672.105816201,543.67,11,1,1,0,0,3,0,0,0,19,3,2100,363512138.5071912
829576.4033787597,5932672.677842356,543.52,10,1,1,0,0,3,0,0,0,19,3,2100,363512138.5071921
829577.4122454991,5932672.883024488,543.89,8,1,1,0,0,3,0,0,0,19,3,2100,363512138.513961
829576.900746036,5932674.305761693,543.66,10,1,2,0,0,3,0,0,0,19,3,2100,363512138.5139629
829577.0761094302,5932673.733749279,544.08,9,1,1,0,0,3,0,0,0,19,3,2100,363512138.5139619
829578.3919882256,5932673.850864708,543.94,10,1,1,0,0,3,0,0,0,19,3,2100,363512138.5207308
829578.1143107789,5932674.569574478,543.95,8,1,1,0,0,3,0,0,0,19,3,2100,363512138.5207317
829577.6460543735,5932672.003028737,545.05,7,1,2,0,0,3,0,0,0,19,3,2100,363512138.5139591
829579.2839452119,5932674.393400591,544.39,10,1,2,0,0,3,0,0,0,19,3,2100,363512138.5275001
829582.0472676372,5932674.5249323975,543.8,8,2,2,0,0,3,0,0,0,19,3,2100,363512138.5410382
829579.9562006168,5932672.486652258,545.02,5,2,3,0,0,3,0,0,0,19,3,2100,363512138.5274973
829579.488541797,5932673.792043388,544.61,6,1,2,0,0,3,0,0,0,19,3,2100,363512138.5274992
829582.1057094686,5932674.18761799,544.61,6,2,2,0,0,3,0,0,0,19,3,2100,363512138.5410373
829581.0675351112,5932673.454481643,545.39,2,3,3,0,0,3,0,0,0,19,3,2100,363512138.534267
829578.6555327314,5932676.182809185,543.76,3,1,3,0,0,3,0,0,0,19,3,2100,363512138.5275028
829580.6729783545,5932674.87715251,543.75,6,2,2,0,0,3,0,0,0,19,3,2100,363512138.5342697
829581.6526632397,5932675.419681096,544.41,10,1,1,0,0,3,0,0,0,19,3,2100,363512138.5410391
829581.3165517658,5932676.534368361,543.5,12,1,1,0,0,3,0,0,0,19,3,2100,363512138.5410409
829580.6291076802,5932674.701200387,544.94,6,2,3,0,0,3,0,0,0,19,3,2100,363512138.5342688
829580.3952778443,5932675.346564322,544.78,10,1,2,0,0,3,0,0,0,19,3,2100,363512138.5342697
829580.1175971212,5932676.035943736,544.87,8,1,3,0,0,3,0,0,0,19,3,2100,363512138.5342707
829581.3311426244,5932676.241068991,544.55,6,1,3,0,0,3,0,0,0,19,3,2100,363512138.54104
829584.5764889912,5932673.703138096,542.24,6,2,4,0,0,3,0,0,0,19,3,2100,363512138.5545749
829583.3338897958,5932674.642020369,542.73,4,2,3,0,0,3,0,0,0,19,3,2100,363512138.5478076
829583.4800250523,5932674.143349388,543.26,7,2,3,0,0,3,0,0,0,19,3,2100,363512138.5478066
829584.2841740992,5932674.201888298,543.35,3,1,4,0,0,3,0,0,0,19,3,2100,363512138.5545749
829587.1202847667,5932672.441393911,542.21,2,2,2,0,0,3,0,0,0,19,3,2100,363512138.5681092
829586.5064695504,5932673.996160386,542.35,3,2,2,0,0,3,0,0,0,19,3,2100,363512138.568111
829586.8426082968,5932673.174766075,542.09,2,2,3,0,0,3,0,0,0,19,3,2100,363512138.5681101
829586.1991548139,5932672.250886571,542.47,2,2,2,0,0,3,0,0,0,19,3,2100,363512138.5613408
829583.7580743462,5932675.829933167,542.29,5,1,2,0,0,3,0,0,0,19,3,2100,363512138.5545776
829582.63240278,5932676.578116558,542.37,4,2,2,0,0,3,0,0,0,19,3,2100,363512138.5478103
829582.7785399767,5932676.09411109,542.87,7,1,3,0,0,3,0,0,0,19,3,2100,363512138.5478093
829583.9480571877,5932675.257916454,542.66,10,1,2,0,0,3,0,0,0,19,3,2100,363512138.5545767
829584.0503425102,5932674.83258635,543.21,10,1,2,0,0,3,0,0,0,19,3,2100,363512138.5545757
829584.8838255758,5932675.463119122,543.3100000000001,9,1,3,0,0,3,0,0,0,19,3,2100,363512138.5613444
829584.6499949923,5932676.093819314,543.23,5,2,2,0,0,3,0,0,0,19,3,2100,363512138.5613453
829583.3927043214,5932676.724662784,542.47,4,2,2,0,0,3,0,0,0,19,3,2100,363512138.5545786
829587.296299061,5932675.990671017,541.71,9,1,2,0,0,3,0,0,0,19,3,2100,363512138.5748815
829587.4424327869,5932675.491997192,542.16,6,2,3,0,0,3,0,0,0,19,3,2100,363512138.5748806
829585.8341857531,5932675.594951359,542.9300000000001,5,1,2,0,0,3,0,0,0,19,3,2100,363512138.5681128
829586.0241698767,5932675.052261099,543.1,2,2,3,0,0,3,0,0,0,19,3,2100,363512138.5681119
829585.5565112801,5932676.342990036,542.8,10,2,3,0,0,3,0,0,0,19,3,2100,363512138.5681138
829584.7664429425,5932672.837826979,543.73,3,2,2,0,0,3,0,0,0,19,3,2100,363512138.554573
829584.5033860795,5932673.556533147,543.7,2,3,4,0,0,3,0,0,0,19,3,2100,363512138.5545739
829582.4710556187,5932673.0582511695,545.27,6,2,2,0,0,3,0,0,0,19,3,2100,363512138.5410355
829584.6494974588,5932672.823225038,545.08,4,2,3,0,0,3,0,0,0,19,3,2100,363512138.5545721
829582.1933773299,5932673.762296752,545.35,7,1,1,0,0,3,0,0,0,19,3,2100,363512138.5410364
829583.2315345414,5932674.319456189,545.24,5,2,3,0,0,3,0,0,0,19,3,2100,363512138.5478057
829584.13799082,5932674.172636652,545.0600000000001,2,2,4,0,0,3,0,0,0,19,3,2100,363512138.5545739
829585.9945111392,5932672.353646084,544.24,2,2,2,0,0,3,0,0,0,19,3,2100,363512138.5613399
829585.4976183166,5932673.659055461,544.22,6,1,1,0,0,3,0,0,0,19,3,2100,363512138.5613417
829588.0415861204,5932673.467971915,544.12,7,1,2,0,0,3,0,0,0,19,3,2100,363512138.5748769
829586.199516753,5932674.2749509225,544.5600000000001,10,1,3,0,0,3,0,0,0,19,3,2100,363512138.5681101
829586.2725675891,5932673.864301687,545.39,8,1,2,0,0,3,0,0,0,19,3,2100,363512138.5681092
829587.6469838117,5932674.392047263,544.53,10,1,2,0,0,3,0,0,0,19,3,2100,363512138.5748779
829582.9538828033,5932675.302130207,544.21,8,1,3,0,0,3,0,0,0,19,3,2100,363512138.5478076
829582.6762029467,5932675.991511051,544.34,10,1,2,0,0,3,0,0,0,19,3,2100,363512138.5478084
829582.3254725435,5932677.106204179,543.53,10,1,2,0,0,3,0,0,0,19,3,2100,363512138.5478103
829582.9980822736,5932677.414110437,544.01,8,1,2,0,0,3,0,0,0,19,3,2100,363512138.5545786
829585.0445508722,5932674.68580928,544.71,10,1,1,0,0,3,0,0,0,19,3,2100,363512138.5613426
829584.1092124548,5932677.017974006,545.28,9,1,2,0,0,3,0,0,0,19,3,2100,363512138.5613453
829584.8695741179,5932677.53118749,545.4300000000001,3,1,3,0,0,3,0,0,0,19,3,2100,363512138.5681138
829585.9656870072,5932674.920314297,544.38,5,1,2,0,0,3,0,0,0,19,3,2100,363512138.568111
829585.7172375283,5932675.565682124,544.26,9,1,3,0,0,3,0,0,0,19,3,2100,363512138.5681119
829587.3985434674,5932675.096080579,544.38,10,1,1,0,0,3,0,0,0,19,3,2100,363512138.5748788
829587.1500954169,5932675.741451159,544.34,11,1,1,0,0,3,0,0,0,19,3,2100,363512138.5748798
829586.9016502493,5932676.416151321,544.19,4,1,3,0,0,3,0,0,0,19,3,2100,363512138.5748806
829564.8979590582,5932679.998131842,537.36,9,1,2,0,0,3,0,0,0,19,3,2100,363512138.453051
829566.740764266,5932683.5912103485,538.79,5,1,2,0,0,3,0,0,0,19,3,2100,363512138.4733623
829568.2759605773,5932683.766951004,538.42,6,2,3,0,0,3,0,0,0,19,3,2100,363512138.480132
829571.8721683779,5932680.68639219,538.8100000000001,2,1,2,0,0,3,0,0,0,19,3,2100,363512138.4936668
829573.1439730105,5932679.439529943,539.0,4,1,2,0,0,3,0,0,0,19,3,2100,363512138.5004346
829573.7724071984,5932677.884751958,538.59,2,1,2,0,0,3,0,0,0,19,3,2100,363512138.5004328
829573.5239587284,5932678.530123715,538.59,3,1,2,0,0,3,0,0,0,19,3,2100,363512138.5004336
829574.7958822227,5932678.001934754,539.03,3,1,2,0,0,3,0,0,0,19,3,2100,363512138.5072014
829575.7462979608,5932678.456441408,538.87,4,1,2,0,0,3,0,0,0,19,3,2100,363512138.5139709
829575.9070525862,5932677.957764252,539.29,2,1,2,0,0,3,0,0,0,19,3,2100,363512138.51397
829575.4101562813,5932679.263170508,539.17,3,1,2,0,0,3,0,0,0,19,3,2100,363512138.5139718
829575.2932553219,5932679.7178380415,538.67,3,1,2,0,0,3,0,0,0,19,3,2100,363512138.5139727
829572.5447715179,5932680.979624293,539.04,5,1,2,0,0,3,0,0,0,19,3,2100,363512138.5004365
829573.2175085174,5932682.138177992,538.98,2,1,2,0,0,3,0,0,0,19,3,2100,363512138.5072067
829571.5363783486,5932683.737102487,538.69,4,2,3,0,0,3,0,0,0,19,3,2100,363512138.5004402
829572.808308872,5932683.311558992,538.51,6,2,3,0,0,3,0,0,0,19,3,2100,363512138.5072085
829575.9222630962,5932681.756378903,538.09,6,2,3,0,0,3,0,0,0,19,3,2100,363512138.5207443
829573.8171970744,5932683.736710921,537.98,11,1,1,0,0,3,0,0,0,19,3,2100,363512138.5139781
829575.2061580947,5932683.751135845,537.46,10,1,1,0,0,3,0,0,0,19,3,2100,363512138.5207471
829575.6007380302,5932682.563097833,538.15,10,1,1,0,0,3,0,0,0,19,3,2100,363512138.5207452
829575.3230639553,5932683.311139813,538.11,9,1,1,0,0,3,0,0,0,19,3,2100,363512138.5207462
829574.6794376617,5932681.27260531,538.82,5,1,2,0,0,3,0,0,0,19,3,2100,363512138.5139745
829573.6851682471,5932680.847446845,539.22,5,1,2,0,0,3,0,0,0,19,3,2100,363512138.5072049
829573.4221080496,5932681.5514870295,539.2,2,1,2,0,0,3,0,0,0,19,3,2100,363512138.5072058
829575.9368555341,5932681.49240587,538.94,5,1,2,0,0,3,0,0,0,19,3,2100,363512138.5207434
829574.2556247392,5932682.47532697,538.5,7,2,3,0,0,3,0,0,0,19,3,2100,363512138.5139763
829571.9452223118,5932680.305071305,539.5,2,1,2,0,0,3,0,0,0,19,3,2100,363512138.4936659
829572.7493688598,5932680.363605239,539.41,6,1,2,0,0,3,0,0,0,19,3,2100,363512138.5004355
829574.3866619542,5932678.940683022,539.5600000000001,5,1,2,0,0,3,0,0,0,19,3,2100,363512138.5072022
829574.1089801459,5932679.630061511,539.62,2,1,2,0,0,3,0,0,0,19,3,2100,363512138.5072031
829573.7289917315,5932680.510138671,540.15,3,1,2,0,0,3,0,0,0,19,3,2100,363512138.507204
829574.8255735213,5932680.773934089,539.35,5,1,2,0,0,3,0,0,0,19,3,2100,363512138.5139736
829575.8783670691,5932681.33112361,540.16,2,1,2,0,0,3,0,0,0,19,3,2100,363512138.5207425
829573.9486911081,5932682.988747331,539.64,3,1,3,0,0,3,0,0,0,19,3,2100,363512138.5139763
829574.1386762671,5932682.431395314,539.96,4,1,2,0,0,3,0,0,0,19,3,2100,363512138.5139754
829575.5422468486,5932682.372486335,539.49,4,1,3,0,0,3,0,0,0,19,3,2100,363512138.5207443
829566.4777009231,5932684.280583569,538.76,9,2,2,0,0,3,0,0,0,19,3,2100,363512138.4733633
829566.3023321006,5932684.808601599,538.49,4,2,3,0,0,3,0,0,0,19,3,2100,363512138.4733641
829569.4456563388,5932684.074741804,537.8100000000001,5,2,2,0,0,3,0,0,0,19,3,2100,363512138.4869022
829569.1095162058,5932684.896137812,538.11,6,2,2,0,0,3,0,0,0,19,3,2100,363512138.4869031
829567.691395807,5932685.512344603,537.52,7,2,2,0,0,3,0,0,0,19,3,2100,363512138.4801347
829568.4518721882,5932686.773549653,537.4,7,1,1,0,0,3,0,0,0,19,3,2100,363512138.4869059
829569.6215390787,5932686.788043526,537.85,7,2,2,0,0,3,0,0,0,19,3,2100,363512138.4936752
829567.9690509088,5932684.529672644,538.63,8,2,2,0,0,3,0,0,0,19,3,2100,363512138.4801329
829567.793684844,5932685.072358039,538.38,9,1,1,0,0,3,0,0,0,19,3,2100,363512138.4801338
829570.2499486038,5932684.939974652,538.71,5,2,2,0,0,3,0,0,0,19,3,2100,363512138.4936723
829569.9722763408,5932685.702683292,538.67,7,2,2,0,0,3,0,0,0,19,3,2100,363512138.4936733
829569.7238303964,5932686.377385414,538.57,7,2,2,0,0,3,0,0,0,19,3,2100,363512138.4936742
829570.162622869,5932687.521289044,537.86,4,1,1,0,0,3,0,0,0,19,3,2100,363512138.5004455
829570.3379903309,5932686.978606494,538.2,5,2,2,0,0,3,0,0,0,19,3,2100,363512138.5004446
829565.0449367858,5932684.4568891,541.01,2,1,2,0,0,3,0,0,0,19,3,2100,363512138.4665929
829569.3876443902,5932686.700184779,540.91,2,1,2,0,0,3,0,0,0,19,3,2100,363512138.4936733
829567.6772558126,5932688.328406421,539.41,2,2,3,0,0,3,0,0,0,19,3,2100,363512138.4869068
829572.3991117983,5932684.499607453,538.0600000000001,5,2,2,0,0,3,0,0,0,19,3,2100,363512138.5072102
829572.6329428239,5932683.8689056365,538.1,9,2,2,0,0,3,0,0,0,19,3,2100,363512138.5072093
829573.320303476,5932685.056786578,537.92,6,2,2,0,0,3,0,0,0,19,3,2100,363512138.5139799
829570.5860944836,5932684.147914231,538.48,6,2,2,0,0,3,0,0,0,19,3,2100,363512138.4936714
829571.3171590912,5932684.323798268,538.54,7,2,2,0,0,3,0,0,0,19,3,2100,363512138.500441
829570.9810164465,5932685.130527059,538.82,5,2,2,0,0,3,0,0,0,19,3,2100,363512138.5004419
829570.4548959814,5932686.538609347,538.82,8,2,2,0,0,3,0,0,0,19,3,2100,363512138.5004437
829571.7122169917,5932686.186399417,538.58,5,2,2,0,0,3,0,0,0,19,3,2100,363512138.5072121
829570.6887219922,5932685.863911248,538.97,10,1,1,0,0,3,0,0,0,19,3,2100,363512138.5004428
829572.0337382106,5932685.365009602,538.4,5,2,2,0,0,3,0,0,0,19,3,2100,363512138.5072111
829573.5541314106,5932684.396754802,538.0600000000001,8,3,3,0,0,3,0,0,0,19,3,2100,363512138.513979
829570.8938228511,5932688.57716041,537.58,6,1,1,0,0,3,0,0,0,19,3,2100,363512138.5072157
829571.7565509372,5932689.251682888,537.45,6,2,2,0,0,3,0,0,0,19,3,2100,363512138.5139854
829572.325987719,5932684.133031052,540.36,2,1,3,0,0,3,0,0,0,19,3,2100,363512138.5072085
829572.7648793177,5932685.746315144,541.08,2,2,3,0,0,3,0,0,0,19,3,2100,363512138.513979
829573.9492434511,5932686.376760047,540.2,5,1,1,0,0,6,0,0,0,19,6,2100,363512138.5207489
829575.1773406127,5932686.09789972,540.32,7,3,3,0,0,6,0,0,0,19,6,2100,363512138.5275174
829574.0076833229,5932686.024778594,541.01,4,1,2,0,0,3,0,0,0,19,3,2100,363512138.5207481
829575.1188809013,5932686.215251091,540.58,7,2,3,0,0,6,0,0,0,19,6,2100,363512138.5275174
829575.2650147979,5932685.701913627,541.13,5,1,1,0,0,3,0,0,0,19,3,2100,363512138.5275164
829570.7476164538,5932688.313271929,540.17,5,2,2,0,0,3,0,0,0,19,3,2100,363512138.5072138
829572.1803148122,5932687.49170842,540.15,5,1,1,0,0,3,0,0,0,19,3,2100,363512138.5139817
829571.9026364229,5932688.210419115,540.16,4,3,3,0,0,3,0,0,0,19,3,2100,363512138.5139826
829570.4991662819,5932688.943980078,540.24,3,2,2,0,0,3,0,0,0,19,3,2100,363512138.5072147
829571.6249578231,5932688.92912951,540.16,3,2,2,0,0,3,0,0,0,19,3,2100,363512138.5139836
829571.3472835384,5932689.677172584,540.14,3,2,2,0,0,3,0,0,0,19,3,2100,363512138.5139845
829572.2241392421,5932687.1690636035,540.99,3,2,2,0,0,3,0,0,0,19,3,2100,363512138.5139808
829573.6715665972,5932687.110135312,540.15,5,2,2,0,0,6,0,0,0,19,6,2100,363512138.5207499
829574.6804499637,5932687.4473053785,540.15,8,1,1,0,0,6,0,0,0,19,6,2100,363512138.5275191
829573.393889671,5932687.828848725,540.24,5,2,2,0,0,6,0,0,0,19,6,2100,363512138.5207508
829574.4173879602,5932688.136680835,540.17,6,1,1,0,0,6,0,0,0,19,6,2100,363512138.5275201
829575.8940984191,5932688.253774252,540.13,9,1,1,0,0,6,0,0,0,19,6,2100,363512138.5342889
829574.1689429533,5932688.811384614,540.11,3,2,2,0,0,6,0,0,0,19,6,2100,363512138.5275209
829573.8912670373,5932689.544762124,540.12,4,2,2,0,0,6,0,0,0,19,6,2100,363512138.5275218
829575.616422665,5932688.987151768,540.14,6,1,1,0,0,6,0,0,0,19,6,2100,363512138.5342898
829575.3241306868,5932689.749864656,540.14,7,2,2,0,0,6,0,0,0,19,6,2100,363512138.5342908
829574.8119702495,5932686.977970146,540.7,10,1,1,0,0,6,0,0,0,19,6,2100,363512138.5275182
829576.0110043362,5932687.828439902,540.64,7,1,1,0,0,6,0,0,0,19,6,2100,363512138.534288
829576.1425171616,5932687.3151040105,541.17,5,1,1,0,0,3,0,0,0,19,3,2100,363512138.5342871
829565.4253646366,5932686.084886509,542.82,3,1,2,0,0,3,0,0,0,19,3,2100,363512138.4733633
829566.9020915162,5932686.319310844,542.67,2,1,2,0,0,3,0,0,0,19,3,2100,363512138.4801329
829567.4282450819,5932685.219194419,541.67,2,1,3,0,0,3,0,0,0,19,3,2100,363512138.480132
829568.5832761893,5932685.028394335,543.2,2,1,2,0,0,3,0,0,0,19,3,2100,363512138.4869004
829568.4956060429,5932685.439051025,542.51,3,2,3,0,0,3,0,0,0,19,3,2100,363512138.4869013
829568.2763675173,5932685.805780036,543.33,3,1,3,0,0,3,0,0,0,19,3,2100,363512138.4869013
829568.0717693843,5932686.407136776,543.08,4,1,2,0,0,3,0,0,0,19,3,2100,363512138.4869022
829566.580596952,5932687.41933162,541.8100000000001,3,1,2,0,0,3,0,0,0,19,3,2100,363512138.4801347
829564.957704915,5932687.390282927,542.53,2,1,1,0,0,3,0,0,0,19,3,2100,363512138.4733651
829564.6800274424,5932688.12365833,542.49,4,1,2,0,0,3,0,0,0,19,3,2100,363512138.473366
829565.0307571895,5932686.979633936,543.38,3,1,3,0,0,3,0,0,0,19,3,2100,363512138.4733641
829565.8352314244,5932689.164808117,542.58,3,1,2,0,0,3,0,0,0,19,3,2100,363512138.4801365
829566.8149172154,5932689.7659872435,542.69,2,1,3,0,0,3,0,0,0,19,3,2100,363512138.4869068
829568.1892124678,5932689.487084378,542.22,2,1,2,0,0,3,0,0,0,19,3,2100,363512138.4936761
829569.3294969447,5932688.680230118,542.0600000000001,2,1,2,0,0,3,0,0,0,19,3,2100,363512138.5004446
829570.2360622572,5932689.178752696,542.13,2,1,2,0,0,3,0,0,0,19,3,2100,363512138.5072138
829567.6771869094,5932687.580510351,542.45,3,1,2,0,0,3,0,0,0,19,3,2100,363512138.4869041
829567.852551172,5932687.008497265,542.87,3,1,2,0,0,3,0,0,0,19,3,2100,363512138.4869031
829569.4756320716,5932688.181556209,542.52,3,1,2,0,0,3,0,0,0,19,3,2100,363512138.5004437
829568.4376330487,5932688.533754349,543.46,3,1,2,0,0,3,0,0,0,19,3,2100,363512138.4936742
829570.1483452953,5932689.09081056,543.42,5,1,1,0,0,3,0,0,0,19,3,2100,363512138.507213
829569.752941333,5932685.028223234,543.7,3,1,2,0,0,3,0,0,0,19,3,2100,363512138.4936696
829569.022196691,5932686.773695821,544.4300000000001,3,1,2,0,0,3,0,0,0,19,3,2100,363512138.4936714
829568.9345270449,5932687.1843536105,543.77,4,1,2,0,0,3,0,0,0,19,3,2100,363512138.4936723
829569.7094396417,5932687.286892164,543.67,3,1,2,0,0,3,0,0,0,19,3,2100,363512138.5004419
829569.8409596941,5932686.817555997,544.19,5,1,2,0,0,3,0,0,0,19,3,2100,363512138.500441
829568.116108371,5932689.340476326,543.6,2,1,2,0,0,3,0,0,0,19,3,2100,363512138.4936752
829571.6244497445,5932685.570527918,541.9300000000001,3,1,2,0,0,3,0,0,0,19,3,2100,363512138.5072093
829571.3175413006,5932686.333251859,542.2,4,1,2,0,0,3,0,0,0,19,3,2100,363512138.5072102
829570.600939933,5932685.057405215,543.26,2,1,2,0,0,3,0,0,0,19,3,2100,363512138.5004393
829570.4840401612,5932685.526737943,542.71,2,1,3,0,0,3,0,0,0,19,3,2100,363512138.5004402
829572.2094721991,5932686.6558065,543.15,3,1,3,0,0,3,0,0,0,19,3,2100,363512138.513979
829574.7973298241,5932686.743342743,541.78,2,1,3,0,0,3,0,0,0,19,3,2100,363512138.5275174
829571.3180016807,5932689.193253349,542.37,2,2,3,0,0,3,0,0,0,19,3,2100,363512138.5139826
829570.9375528353,5932687.227992489,542.62,5,1,2,0,0,3,0,0,0,19,3,2100,363512138.5072111
829571.7418176554,5932687.990535647,542.83,3,1,2,0,0,3,0,0,0,19,3,2100,363512138.5139808
829571.9756442697,5932687.315838746,543.02,3,1,2,0,0,3,0,0,0,19,3,2100,363512138.5139799
829570.3529398214,5932688.460122661,543.74,3,1,2,0,0,3,0,0,0,19,3,2100,363512138.5072121
829572.7215384694,5932688.723741583,543.76,5,1,2,0,0,3,0,0,0,19,3,2100,363512138.5207499
829572.5315545774,5932689.281097018,543.53,3,1,2,0,0,3,0,0,0,19,3,2100,363512138.5207508
829576.3752828118,5932680.245684028,539.32,3,1,2,0,0,3,0,0,0,19,3,2100,363512138.5207416
829578.9193414536,5932680.641256811,538.88,8,1,2,0,0,3,0,0,0,19,3,2100,363512138.5342798
829579.9131431888,5932678.177082556,538.3100000000001,13,1,1,0,0,3,0,0,0,19,3,2100,363512138.534277
829579.6646965281,5932678.837119108,538.25,12,1,1,0,0,3,0,0,0,19,3,2100,363512138.5342779
829581.0828352633,5932678.411555694,538.21,13,1,1,0,0,3,0,0,0,19,3,2100,363512138.5410463
829580.8343907144,5932679.08625825,538.13,12,1,1,0,0,3,0,0,0,19,3,2100,363512138.5410473
829579.5331764586,5932679.306453642,537.69,12,1,1,0,0,3,0,0,0,19,3,2100,363512138.5342789
829580.585943931,5932679.746294557,538.0600000000001,12,1,1,0,0,3,0,0,0,19,3,2100,363512138.5410482
829580.3082715704,5932680.509000725,537.95,10,1,1,0,0,3,0,0,0,19,3,2100,363512138.5410491
829581.7994682295,5932679.775433783,538.14,10,1,1,0,0,3,0,0,0,19,3,2100,363512138.5478167
829581.5364041564,5932680.450141203,538.13,12,1,1,0,0,3,0,0,0,19,3,2100,363512138.5478176
829582.0479148822,5932679.100735545,538.35,9,2,2,0,0,3,0,0,0,19,3,2100,363512138.5478158
829576.5219537496,5932683.340253053,537.33,7,1,1,0,0,3,0,0,0,19,3,2100,363512138.5275155
829576.6534718516,5932682.85625205,537.9,10,1,1,0,0,3,0,0,0,19,3,2100,363512138.5275145
829578.130177267,5932682.958674659,537.75,7,1,1,0,0,3,0,0,0,19,3,2100,363512138.5342834
829578.3055420826,5932682.386664374,538.25,10,1,1,0,0,3,0,0,0,19,3,2100,363512138.5342825
829576.9603587452,5932681.844234319,538.78,9,1,1,0,0,3,0,0,0,19,3,2100,363512138.5275128
829577.1503388425,5932681.272210601,538.95,2,1,2,0,0,3,0,0,0,19,3,2100,363512138.5275119
829578.685511997,5932681.2866224935,538.76,11,1,1,0,0,3,0,0,0,19,3,2100,363512138.5342807
829578.4955235971,5932681.814643633,538.51,11,1,1,0,0,3,0,0,0,19,3,2100,363512138.5342816
829576.7411422543,5932682.445596744,538.63,11,1,1,0,0,3,0,0,0,19,3,2100,363512138.5275137
829579.9428989317,5932681.374402814,538.29,9,1,1,0,0,3,0,0,0,19,3,2100,363512138.54105
829581.3610412502,5932681.022154812,537.73,10,2,2,0,0,3,0,0,0,19,3,2100,363512138.5478186
829579.6067536363,5932682.151800759,538.64,9,1,1,0,0,3,0,0,0,19,3,2100,363512138.5410509
829576.784480808,5932679.057639346,539.87,2,1,2,0,0,3,0,0,0,19,3,2100,363512138.5207398
829576.5214204157,5932679.761678465,539.82,4,1,2,0,0,3,0,0,0,19,3,2100,363512138.5207407
829581.9748111786,5932678.968790687,539.62,11,1,1,0,0,3,0,0,0,19,3,2100,363512138.5478149
829581.6971316668,5932679.672834698,539.64,7,1,2,0,0,3,0,0,0,19,3,2100,363512138.5478158
829578.8321417132,5932683.7359855715,540.49,6,1,1,0,0,3,0,0,0,19,3,2100,363512138.5410519
829580.5279644094,5932682.694355638,539.78,7,1,1,0,0,3,0,0,0,19,3,2100,363512138.5478195
829581.2590313399,5932682.840919743,540.26,8,1,1,0,0,3,0,0,0,19,3,2100,363512138.5545877
829580.9959661363,5932683.515625347,540.19,6,2,2,0,0,6,0,0,0,19,6,2100,363512138.5545886
829582.0925134724,5932683.471450319,540.27,8,1,1,0,0,6,0,0,0,19,6,2100,363512138.5613564
829580.5133229695,5932682.445064765,540.95,0,1,2,0,0,3,0,0,0,19,3,2100,363512138.5478186
829581.3320870795,5932682.474264981,540.94,6,1,1,0,0,3,0,0,0,19,3,2100,363512138.5545868
829582.954367152,5932678.939245022,538.04,5,2,2,0,0,3,0,0,0,19,3,2100,363512138.554584
829585.2204930283,5932678.45486894,537.77,7,2,2,0,0,1,0,0,0,19,1,2100,363512138.5681193
829584.2555342603,5932678.5430116905,537.36,7,3,3,0,0,1,0,0,0,19,1,2100,363512138.5613517
829583.9778537395,5932679.232391476,537.45,4,3,3,0,0,1,0,0,0,19,1,2100,363512138.5613527
829584.9720465934,5932679.114905319,537.7,7,2,2,0,0,1,0,0,0,19,1,2100,363512138.5681202
829582.6913108286,5932679.672615216,537.92,10,1,1,0,0,3,0,0,0,19,3,2100,363512138.554585
829582.4282483619,5932680.361987598,537.86,9,1,1,0,0,3,0,0,0,19,3,2100,363512138.5545858
829583.8024442196,5932679.305808263,539.08,2,2,3,0,0,3,0,0,0,19,3,2100,363512138.5613517
829582.6912605251,5932679.144687537,540.02,7,1,1,0,0,3,0,0,0,19,3,2100,363512138.5545831
829582.4720497229,5932679.7753842,539.9,9,1,2,0,0,3,0,0,0,19,3,2100,363512138.554584
829583.4955139582,5932679.833896091,540.24,5,1,3,0,0,3,0,0,0,19,3,2100,363512138.5613517
829583.305525714,5932680.361916908,539.98,4,2,3,0,0,3,0,0,0,19,3,2100,363512138.5613527
829584.0804808062,5932680.611159669,541.04,6,1,2,0,0,3,0,0,0,19,3,2100,363512138.5681202
829586.4486991883,5932678.660071665,539.83,4,3,3,0,0,6,0,0,0,19,6,2100,363512138.574886
829588.1153247888,5932677.823804784,539.9,10,2,2,0,0,6,0,0,0,19,6,2100,363512138.5816526
829585.849495751,5932680.141510752,540.1800000000001,4,2,2,0,0,6,0,0,0,19,6,2100,363512138.5748877
829587.267676616,5932679.979944627,540.11,6,1,1,0,0,6,0,0,0,19,6,2100,363512138.5816553
829585.5864104846,5932680.5815856755,541.16,7,1,2,0,0,3,0,0,0,19,3,2100,363512138.5748877
829585.8202419493,5932679.95088684,541.29,2,2,2,0,0,3,0,0,0,19,3,2100,363512138.5748869
829587.2822695383,5932679.715973319,541.01,7,1,1,0,0,3,0,0,0,19,3,2100,363512138.5816543
829584.475727307,5932683.720392491,540.16,1,1,1,0,0,6,0,0,0,19,6,2100,363512138.5748922
829583.0716759909,5932680.772651734,540.9,2,1,3,0,0,3,0,0,0,19,3,2100,363512138.5613527
829582.7501534873,5932681.594036456,540.9300000000001,5,1,1,0,0,3,0,0,0,19,3,2100,363512138.5613536
829585.571818054,5932680.860219923,540.15,8,1,1,0,0,6,0,0,0,19,6,2100,363512138.5748886
829586.6830904952,5932681.476036413,540.11,7,1,1,0,0,6,0,0,0,19,6,2100,363512138.5816571
829586.420032154,5932682.180078729,540.14,8,1,1,0,0,6,0,0,0,19,6,2100,363512138.581658
829586.9607681202,5932680.757327151,540.14,8,1,1,0,0,6,0,0,0,19,6,2100,363512138.5816561
829588.159853233,5932681.915795654,540.13,8,1,1,0,0,6,0,0,0,19,6,2100,363512138.5884251
829586.1715863674,5932682.840116784,540.11,7,1,1,0,0,6,0,0,0,19,6,2100,363512138.5816588
829585.8646730985,5932683.588166585,540.15,8,1,1,0,0,6,0,0,0,19,6,2100,363512138.5816598
829587.9260196245,5932682.517166502,540.15,9,1,1,0,0,6,0,0,0,19,6,2100,363512138.588426
829587.5898792935,5932683.338559023,540.33,11,1,1,0,0,6,0,0,0,19,6,2100,363512138.5884269
829577.2094045386,5932684.762905723,540.28,9,1,1,0,0,3,0,0,0,19,3,2100,363512138.5342843
829578.5983120365,5932684.396013042,540.22,7,1,1,0,0,6,0,0,0,19,6,2100,363512138.5410528
829578.3352546523,5932685.114720633,540.21,6,1,1,0,0,6,0,0,0,19,6,2100,363512138.5410537
829576.9609571542,5932685.422942016,540.2,8,1,1,0,0,6,0,0,0,19,6,2100,363512138.5342852
829577.9260286858,5932686.00947261,540.82,7,1,1,0,0,6,0,0,0,19,6,2100,363512138.5410546
829579.1834001634,5932685.95060189,540.8,6,1,1,0,0,6,0,0,0,19,6,2100,363512138.5478231
829578.9203407532,5932686.654643663,540.8100000000001,8,1,1,0,0,6,0,0,0,19,6,2100,363512138.547824
829579.6218534238,5932684.967845629,540.2,8,1,1,0,0,6,0,0,0,19,6,2100,363512138.5478222
829580.3821517503,5932685.085060664,540.35,8,1,1,0,0,6,0,0,0,19,6,2100,363512138.5545904
829581.8148392594,5932684.219491223,540.19,7,1,1,0,0,6,0,0,0,19,6,2100,363512138.5613573
829581.4933136093,5932685.011546667,540.33,10,1,1,0,0,6,0,0,0,19,6,2100,363512138.5613582
829580.1483214527,5932685.730425018,540.1800000000001,8,1,1,0,0,6,0,0,0,19,6,2100,363512138.5545914
829579.885262624,5932686.4344678195,540.22,6,1,1,0,0,6,0,0,0,19,6,2100,363512138.5545923
829581.2740971844,5932685.612909088,540.17,8,1,1,0,0,6,0,0,0,19,6,2100,363512138.5613591
829582.1659941901,5932685.818098428,540.2,9,1,1,0,0,6,0,0,0,19,6,2100,363512138.5681273
829581.025647017,5932686.243615653,540.19,7,1,1,0,0,6,0,0,0,19,6,2100,363512138.56136
829581.8883166744,5932686.536809296,540.21,8,1,1,0,0,6,0,0,0,19,6,2100,363512138.5681283
829580.6452104591,5932684.366356052,540.45,8,1,1,0,0,6,0,0,0,19,6,2100,363512138.5545895
829580.7621160551,5932683.926359918,541.1,4,1,2,0,0,1,0,0,0,19,1,2100,363512138.5545886
829577.2391554659,5932687.945558689,540.17,8,1,1,0,0,6,0,0,0,19,6,2100,363512138.5410574
829577.0053273503,5932688.590928238,540.15,7,1,1,0,0,6,0,0,0,19,6,2100,363512138.5410583
829576.713033648,5932689.338975508,540.1800000000001,8,1,1,0,0,6,0,0,0,19,6,2100,363512138.5410592
829579.0376165478,5932688.649266416,540.16,8,1,1,0,0,6,0,0,0,19,6,2100,363512138.5545951
829577.9850217808,5932689.250769619,540.17,8,1,1,0,0,6,0,0,0,19,6,2100,363512138.5478276
829578.774551828,5932689.323974094,540.14,7,1,1,0,0,6,0,0,0,19,6,2100,363512138.554596
829577.4291420503,5932687.40287124,540.44,6,1,1,0,0,6,0,0,0,19,6,2100,363512138.5410565
829577.6191213405,5932686.801521643,540.84,7,1,1,0,0,6,0,0,0,19,6,2100,363512138.5410556
829578.6572799723,5932687.358682786,540.74,8,1,1,0,0,6,0,0,0,19,6,2100,363512138.5478249
829578.3942159617,5932688.048053617,540.62,8,1,1,0,0,6,0,0,0,19,6,2100,363512138.5478258
829579.1691312351,5932688.1505964035,540.67,6,1,1,0,0,6,0,0,0,19,6,2100,363512138.5545942
829578.1311547301,5932688.737430239,540.67,9,1,1,0,0,6,0,0,0,19,6,2100,363512138.5478268
829580.4702944201,5932687.695704766,540.23,6,1,1,0,0,6,0,0,0,19,6,2100,363512138.5613617
829581.6106404812,5932687.270184832,540.16,8,1,1,0,0,6,0,0,0,19,6,2100,363512138.5681292
829581.318346016,5932688.003567864,540.26,2,2,2,0,0,6,0,0,0,19,6,2100,363512138.5681301
829580.1780013758,5932688.443752746,540.28,4,1,1,0,0,6,0,0,0,19,6,2100,363512138.5613627
829581.084509949,5932688.604935223,540.17,5,1,1,0,0,6,0,0,0,19,6,2100,363512138.568131
829580.8360666045,5932689.279641605,540.1800000000001,7,1,1,0,0,6,0,0,0,19,6,2100,363512138.5681318
829582.2689229469,5932689.44074237,540.1800000000001,8,1,1,0,0,6,0,0,0,19,6,2100,363512138.5748995
829579.4321975484,5932687.475892185,540.79,7,1,1,0,0,6,0,0,0,19,6,2100,363512138.5545932
829580.6602730098,5932687.094354057,540.6,9,1,1,0,0,6,0,0,0,19,6,2100,363512138.5613609
829579.8564708303,5932689.191813637,540.57,9,1,1,0,0,6,0,0,0,19,6,2100,363512138.5613635
829581.0406425947,5932688.458313419,541.28,3,1,2,0,0,1,0,0,0,19,1,2100,363512138.5681301
829582.6482693162,5932684.512693535,540.33,9,1,1,0,0,6,0,0,0,19,6,2100,363512138.5681256
829582.4144375006,5932685.143392617,540.2,9,1,1,0,0,6,0,0,0,19,6,2100,363512138.5681264
829584.2126629892,5932684.395099618,540.13,8,1,1,0,0,6,0,0,0,19,6,2100,363512138.5748931
829583.9203702089,5932685.143147106,540.17,8,1,1,0,0,6,0,0,0,19,6,2100,363512138.5748941
829583.6719261853,5932685.8178512715,540.12,7,1,1,0,0,6,0,0,0,19,6,2100,363512138.5748949
829583.379628412,5932686.536565248,540.15,8,1,1,0,0,6,0,0,0,19,6,2100,363512138.5748959
829585.0316461102,5932685.773632091,540.17,8,1,1,0,0,6,0,0,0,19,6,2100,363512138.5816626
829584.7393525245,5932686.521678033,540.16,9,1,1,0,0,6,0,0,0,19,6,2100,363512138.5816635
829585.5723869331,5932684.380212622,540.15,9,1,1,0,0,6,0,0,0,19,6,2100,363512138.5816607
829585.2947070412,5932685.0842561675,540.14,8,1,1,0,0,6,0,0,0,19,6,2100,363512138.5816617
829586.9906786989,5932684.863990444,540.4300000000001,13,1,1,0,0,6,0,0,0,19,6,2100,363512138.5884287
829588.1895217096,5932684.541123023,540.25,9,1,1,0,0,6,0,0,0,19,6,2100,363512138.5951962
829586.7422350856,5932685.538695014,540.39,11,1,1,0,0,6,0,0,0,19,6,2100,363512138.5884296
829586.5230198856,5932686.154721196,540.14,8,1,1,0,0,6,0,0,0,19,6,2100,363512138.5884305
829587.9264624016,5932685.2451636065,540.22,9,1,1,0,0,6,0,0,0,19,6,2100,363512138.5951972
829587.678012226,5932685.875869319,540.21,9,1,1,0,0,6,0,0,0,19,6,2100,363512138.595198
829587.4003380823,5932686.623909935,540.11,8,1,1,0,0,6,0,0,0,19,6,2100,363512138.595199
829587.2829722024,5932684.115944904,540.45,12,1,1,0,0,6,0,0,0,19,6,2100,363512138.5884277
829583.1019535054,5932687.269943189,540.17,8,1,1,0,0,6,0,0,0,19,6,2100,363512138.5748968
829582.8388920041,5932687.959318544,540.1800000000001,9,1,1,0,0,6,0,0,0,19,6,2100,363512138.5748976
829584.1547705584,5932688.032442823,540.32,6,1,1,0,0,6,0,0,0,19,6,2100,363512138.5816653
829582.5612163433,5932688.692695243,540.16,9,1,1,0,0,6,0,0,0,19,6,2100,363512138.5748986
829583.6432575563,5932689.352522086,540.26,8,1,1,0,0,6,0,0,0,19,6,2100,363512138.5816671
829583.9063220669,5932688.677814596,540.29,7,1,1,0,0,6,0,0,0,19,6,2100,363512138.5816662
829585.1784805276,5932689.660267835,540.13,7,1,1,0,0,6,0,0,0,19,6,2100,363512138.588435
829584.271671168,5932687.577774732,540.82,6,1,1,0,0,1,0,0,0,19,1,2100,363512138.5816644
829586.2453396814,5932686.858764244,540.11,8,1,1,0,0,6,0,0,0,19,6,2100,363512138.5884314
829585.9676624676,5932687.577475324,540.12,8,1,1,0,0,6,0,0,0,19,6,2100,363512138.5884323
829587.1226631778,5932687.357287351,540.11,9,1,1,0,0,6,0,0,0,19,6,2100,363512138.5951999
829588.1752850366,5932686.91711996,540.21,9,1,1,0,0,6,0,0,0,19,6,2100,363512138.6019674
829586.85959995,5932688.031996862,540.14,9,1,1,0,0,6,0,0,0,19,6,2100,363512138.5952008
829587.897609358,5932687.650495733,540.16,10,1,1,0,0,6,0,0,0,19,6,2100,363512138.6019684
829585.7046028904,5932688.281516084,540.09,7,1,1,0,0,6,0,0,0,19,6,2100,363512138.5884332
829585.456153132,5932688.912223306,540.12,7,1,1,0,0,6,0,0,0,19,6,2100,363512138.5884341
829586.567306943,5932688.780044072,540.16,9,1,1,0,0,6,0,0,0,19,6,2100,363512138.5952017
829586.2603980767,5932689.55742735,540.19,6,2,2,0,0,6,0,0,0,19,6,2100,363512138.5952027
829587.6637794957,5932688.281198561,540.13,8,1,1,0,0,6,0,0,0,19,6,2100,363512138.6019693
829587.3714818018,5932688.999912527,540.15,9,1,1,0,0,6,0,0,0,19,6,2100,363512138.6019701
829588.0586599266,5932689.0291332165,540.13,7,1,1,0,0,6,0,0,0,19,6,2100,363512138.6087387
829581.8724550946,5932678.646224644,542.08,11,1,1,0,0,3,0,0,0,19,3,2100,363512138.547813
829581.5801607722,5932679.379606627,542.17,10,1,1,0,0,3,0,0,0,19,3,2100,363512138.5478139
829580.8781223506,5932677.766421947,543.08,11,1,2,0,0,3,0,0,0,19,3,2100,363512138.5410428
829582.1947760427,5932682.796822187,541.86,8,1,1,0,0,3,0,0,0,19,3,2100,363512138.5613545
829582.0194097321,5932683.339505397,541.54,7,1,1,0,0,3,0,0,0,19,3,2100,363512138.5613555
829582.0185635029,5932677.8689240515,543.69,10,1,2,0,0,3,0,0,0,19,3,2100,363512138.5478111
829582.0919681196,5932679.672928632,544.3100000000001,8,1,2,0,0,3,0,0,0,19,3,2100,363512138.5545813
829582.6181362263,5932678.778111788,542.33,8,2,2,0,0,3,0,0,0,19,3,2100,363512138.5545813
